5.058317941546439656e-01 5.058317941546439656e-01 5.058317941546439656e-01 5.019106179177761362e-01 5.019106179177761362e-01 5.019106179177761362e-01 5.019106179177761362e-01 5.019106179177761362e-01 5.058111563849758685e-01 5.097529703915119059e-01 5.136741466283798463e-01 5.136741466283798463e-01 5.097529703915119059e-01 5.097529703915119059e-01 5.097529703915119059e-01 5.097529703915119059e-01 5.097529703915119059e-01 5.136741466283798463e-01 5.136741466283798463e-01 5.097529703915119059e-01 5.097529703915119059e-01 5.097529703915119059e-01 5.097529703915119059e-01 5.097529703915119059e-01 5.058317941546439656e-01 5.058317941546439656e-01 5.058317941546439656e-01 5.019106179177761362e-01 4.979894118815659798e-01 4.943912961160352726e-01 4.957271948218346935e-01 4.957271948218346935e-01 4.957271948218346935e-01 4.957271948218346935e-01 4.996483836661166356e-01 5.058317941546439656e-01 5.097529703915119059e-01 5.097529703915119059e-01 5.097529703915119059e-01 5.097529703915119059e-01 5.097529703915119059e-01 5.097529703915119059e-01 5.058317941546439656e-01 5.058317941546439656e-01 5.058317941546439656e-01 5.058317941546439656e-01 5.058317941546439656e-01 4.807211784879191208e-01 3.764329485386610497e-01 3.764329485386609941e-01 3.764329485386609941e-01 3.725117723017931093e-01 3.725117723017931093e-01 3.725117723017931093e-01 3.725117723017931093e-01 3.764329485386609941e-01 3.764329485386609941e-01 3.803541247755289345e-01 3.803541247755289345e-01 3.803541247755289345e-01 3.764329485386609941e-01 3.764329485386609941e-01 3.764329485386609941e-01 3.764329485386609941e-01 3.764329485386609941e-01 3.764329485386609386e-01 3.764329485386610497e-01 3.803541247755289345e-01 3.803541247755289345e-01 3.803541247755289345e-01 3.764329485386609941e-01 3.725117723017931093e-01 3.764329485386609941e-01 3.764329485386609941e-01 3.764329485386609941e-01 3.764329485386609386e-01 3.764329485386610497e-01 3.764329485386609941e-01 3.764329485386609941e-01 3.764329485386609941e-01 3.764329485386609941e-01 3.764329485386609941e-01 3.764329485386609941e-01 3.764329485386609941e-01 3.764329485386609941e-01 3.764329485386609386e-01 3.764329485386609941e-01 3.747739893615242845e-01 3.725117723017931093e-01 3.764329485386609941e-01 3.764329485386609941e-01 3.764329485386609941e-01 3.803541247755289900e-01 3.803541247755288790e-01 3.764329485386609941e-01
5.058317941546439656e-01 5.008549086003351025e-01 4.979894118815659798e-01 4.979894118815659798e-01 4.969337105870248461e-01 4.979894118815659798e-01 5.014716650963136901e-01 5.019106179177761362e-01 5.058317941546439656e-01 5.097529703915119059e-01 5.136741466283798463e-01 5.136741466283798463e-01 5.097529703915119059e-01 5.097529703915119059e-01 5.097529703915119059e-01 5.097529703915119059e-01 5.136741466283798463e-01 5.136741466283798463e-01 5.136241397249543539e-01 5.097529703915119059e-01 5.097529703915119059e-01 5.097529703915119059e-01 5.058317941546439656e-01 5.013049741514548074e-01 4.976949267836150992e-01 4.940682356446981505e-01 4.871156885477903598e-01 4.905637836030437571e-01 4.951239369392392842e-01 5.013526001356998218e-01 5.029663192123172699e-01 5.029663192123172699e-01 5.029663192123172699e-01 4.990451211990069580e-01 4.979894118815659798e-01 4.913083308318252351e-01 5.019106179177761362e-01 5.097529703915119059e-01 5.097529703915119059e-01 5.088472898072478046e-01 5.052372676361392978e-01 5.019106179177761362e-01 5.019106179177761362e-01 5.051150285388766870e-01 5.058317941546439656e-01 5.058317941546439656e-01 5.097529703915119059e-01 5.097529703915119059e-01 5.097529703915119059e-01 5.097529703915119059e-01 3.764329485386609941e-01 3.725117723017931093e-01 3.725117723017931093e-01 3.725117723017931093e-01 3.742247071842139672e-01 3.764329485386609941e-01 4.123268005759581079e-01 5.058317941546439656e-01 5.097529703915119059e-01 5.097529703915119059e-01 5.097529703915119059e-01 5.058317941546439656e-01 4.112710992814170297e-01 3.764329485386609941e-01 3.764329485386609941e-01 3.764329485386609386e-01 3.764329485386610497e-01 3.764329485386609941e-01 3.764329485386609941e-01 3.764162795708525522e-01 3.725117723017931093e-01 3.729618344326237622e-01 3.764329485386609941e-01 3.764329485386609941e-01 3.764329485386609941e-01 3.764329485386609386e-01 3.764329485386610497e-01 3.764329485386609941e-01 3.774886498332020723e-01 3.803541247755289345e-01 3.774886498332020723e-01 3.764329485386609941e-01 3.764329485386609941e-01 3.764329485386609941e-01 3.764329485386609941e-01 3.764329485386609386e-01 3.764329485386609941e-01 3.764329485386609941e-01 3.764329485386609941e-01 3.764329485386609941e-01 3.764329485386609941e-01 3.764329485386609941e-01 3.764329485386609941e-01 3.764329485386609941e-01 3.764329485386609941e-01
5.094513414502139792e-01 5.096021559208629981e-01 5.135233321577309384e-01 5.135233321577309384e-01 5.096021559208629981e-01 5.058317941546439656e-01 5.018225098469218937e-01 4.978385974109170165e-01 4.981402274983434686e-01 5.059373642840981899e-01 5.097529703915119059e-01 5.097529703915119059e-01 5.097529703915119059e-01 5.097529703915119059e-01 5.097529703915119059e-01 5.097529703915119059e-01 5.136741466283798463e-01 5.136741466283798463e-01 5.097529703915119059e-01 5.097529703915119059e-01 5.097529703915119059e-01 5.058317941546439656e-01 4.980092560416682912e-01 4.901470594078302101e-01 4.900383142368885392e-01 4.940682356446980950e-01 5.017598023009985919e-01 5.057405117118827231e-01 6.530267175078315889e-01 6.626494744956022975e-01 6.664492053955790585e-01 6.626788436293602480e-01 6.590553275319308568e-01 6.527504888984363429e-01 5.096021559208629981e-01 5.058262378320411701e-01 4.979894118815659798e-01 5.058317941546439656e-01 5.097529703915119059e-01 5.058317941546439656e-01 5.019106179177761362e-01 5.047094169888685089e-01 5.056809796839950577e-01 5.019106179177761362e-01 5.019106179177761362e-01 5.058317941546439656e-01 5.089790540289718113e-01 5.097529703915119059e-01 5.097529703915119059e-01 5.097529703915119059e-01 5.073383513403884049e-01 5.058317941546439656e-01 5.019106179177761362e-01 5.019106179177761362e-01 5.036235528001968831e-01 5.058317941546439656e-01 5.058317941546439656e-01 5.058317941546439656e-01 5.058317941546439656e-01 5.096085060038376691e-01 5.097529703915119059e-01 5.097529703915119059e-01 5.097529703915119059e-01 5.097529703915119059e-01 5.097529703915119059e-01 5.058317941546439656e-01 4.969337392402298215e-01 4.969337392402298215e-01 5.019106179177761362e-01 5.058317941546439656e-01 5.058317941546439656e-01 5.058317941546439656e-01 5.097529703915119059e-01 5.046252772433166278e-01 3.764329485386609941e-01 3.764329485386609386e-01 3.764329485386610497e-01 3.764329485386609941e-01 3.803541247755289345e-01 3.764329485386609941e-01 3.764329485386609941e-01 3.764329485386609941e-01 3.764329485386609941e-01 3.764329485386609941e-01 3.764329485386609941e-01 3.764329485386609386e-01 3.764329485386609941e-01 3.764329485386609941e-01 3.764329485386609941e-01 3.764329485386609941e-01 3.764329485386609941e-01 3.764329485386609941e-01 3.764329485386609941e-01 3.764329485386609941e-01 3.764329485386609941e-01
6.952547692894930353e-01 6.991759455263610867e-01 6.972193262097865496e-01 6.926909232884642664e-01 6.809273945778606674e-01 6.693281742642270826e-01 5.541829134446444316e-01 5.086178930597873293e-01 5.019106179177761362e-01 4.979894118815659798e-01 5.058317941546439656e-01 5.097529703915119059e-01 5.097529703915119059e-01 5.130240568838462245e-01 5.133669613644795682e-01 5.136741466283798463e-01 5.136741466283798463e-01 5.097529703915119059e-01 5.097529703915119059e-01 5.097529703915119059e-01 5.072216685657282564e-01 5.019106179177761362e-01 4.901470594078302101e-01 4.974107605704976010e-01 5.019106179177761362e-01 6.006940961927103029e-01 6.574003371566532472e-01 6.666000198662280773e-01 6.773983359646792435e-01 6.859415788467462249e-01 6.836420550495387882e-01 6.822847248136997278e-01 6.809273945778606674e-01 6.714792648719016821e-01 6.666000198662280773e-01 5.097529703915119059e-01 5.058317941546439656e-01 5.019106179177761362e-01 5.058317941546439656e-01 5.019106179177761362e-01 5.058317941546439656e-01 5.058317941546439656e-01 5.083956401556728455e-01 5.088314145998107385e-01 5.058317941546439656e-01 5.042450671713445409e-01 5.053055310281167056e-01 5.071891243904831370e-01 5.061104040451582797e-01 5.071891243904831370e-01 5.058317941546439656e-01 5.058317941546439656e-01 5.058317941546439656e-01 5.058317941546439656e-01 5.058317941546439656e-01 5.058317941546439656e-01 5.097529703915119059e-01 5.058317941546439656e-01 5.058317941546439656e-01 5.058317941546439656e-01 5.097529703915119059e-01 5.097529703915119059e-01 5.097529703915119059e-01 5.097529703915119059e-01 5.097529703915119059e-01 5.083956401556727345e-01 5.058317941546439656e-01 5.058317941546439656e-01 5.058317941546439656e-01 5.058317941546439656e-01 5.058317941546439656e-01 5.058317941546439656e-01 5.075264725485130191e-01 5.097529703915119059e-01 5.097529703915119059e-01 5.097529703915119059e-01 4.610398860567953561e-01 3.764329485386609941e-01 3.764329485386609941e-01 3.764329485386609941e-01 3.764329485386609941e-01 3.764329485386609941e-01 3.764329485386609941e-01 3.764329485386609941e-01 3.764329485386609941e-01 3.764329485386609386e-01 3.764329485386609941e-01 3.764329485386609941e-01 3.764329485386609941e-01 3.764329485386609941e-01 3.764329485386609941e-01 3.764329485386609941e-01 3.764329485386609941e-01 3.764329485386609941e-01 3.764329485386609941e-01
6.922122857842479826e-01 6.871274568422645057e-01 6.809273945778610004e-01 6.815631966357010851e-01 6.852938703833284517e-01 6.902731291958534854e-01 6.735089101426854352e-01 6.587576673924923076e-01 5.058317941546439656e-01 4.979894118815659798e-01 5.019106179177761362e-01 5.058317941546439656e-01 5.097529703915119059e-01 5.097529703915119059e-01 5.136741466283798463e-01 5.136741466283798463e-01 5.136741466283798463e-01 5.136741466283798463e-01 5.136741466283798463e-01 5.097529703915119059e-01 5.097529703915119059e-01 5.012708421960789806e-01 4.940682356446981505e-01 5.019106179177761362e-01 6.509153149187565379e-01 6.586957540834887936e-01 6.697250544501446301e-01 6.730850421041252307e-01 6.689074812671546022e-01 6.613215133935215206e-01 6.587576673924923076e-01 6.587576673924924187e-01 6.611191044987032583e-01 6.666000198662280773e-01 6.735922549817280336e-01 6.625343792416865663e-01 5.097529703915119059e-01 5.058317941546439656e-01 5.058317941546439656e-01 5.058317941546439656e-01 5.058317941546439656e-01 5.097529703915119059e-01 5.097529703915119059e-01 5.097529703915119059e-01 5.097529703915119059e-01 5.095235736440514307e-01 5.058317941546439656e-01 5.019106179177761362e-01 5.047530738093195524e-01 5.058317941546439656e-01 5.058317941546439656e-01 5.058317941546439656e-01 5.097529703915119059e-01 5.065199843970257243e-01 5.058317941546439656e-01 5.058317941546439656e-01 5.083956401556732896e-01 5.058317941546439656e-01 5.058317941546439656e-01 5.058317941546439656e-01 5.058317941546439656e-01 5.058317941546439656e-01 5.097529703915119059e-01 5.083956401556732896e-01 5.097529703915119059e-01 5.097529703915119059e-01 5.097529703915119059e-01 5.097529703915119059e-01 5.058317941546439656e-01 5.058317941546439656e-01 5.019106179177761362e-01 5.019106179177761362e-01 5.058317941546439656e-01 5.079773284397157695e-01 5.097529703915119059e-01 5.097529703915119059e-01 5.058317941546439656e-01 5.049388137363290951e-01 5.058317941546439656e-01 4.212248566364930613e-01 3.725117723017931093e-01 3.725117723017931093e-01 3.725117723017931093e-01 3.750756183028223223e-01 3.764329485386609941e-01 3.750756183028223223e-01 3.725117723017931093e-01 3.725117723017931093e-01 3.764329485386609941e-01 3.764329485386609941e-01 3.764329485386609941e-01 3.764329485386609941e-01 3.764329485386609941e-01 3.764329485386609941e-01 3.764329485386609941e-01
7.763929544985295195e-01 7.724717782616614681e-01 7.733647586799770046e-01 7.763929544985295195e-01 6.664492053955795026e-01 6.699139694186414529e-01 6.766450573718074679e-01 6.655085993549544332e-01 5.066160294020315424e-01 5.019106179177761362e-01 4.995785322225559932e-01 5.058317941546439656e-01 5.058317941546439656e-01 5.097529703915119059e-01 5.097529703915119059e-01 5.135233321577312715e-01 5.136193771627232119e-01 5.136741466283798463e-01 5.136741466283798463e-01 5.097529703915119059e-01 5.058317941546439656e-01 4.979894118815659798e-01 4.974734676398725464e-01 5.019106179177761362e-01 6.507645004481078521e-01 6.548364911556243673e-01 6.546856766849757925e-01 6.509153149187565379e-01 6.503874642714860821e-01 6.468433242112401338e-01 6.468433242112400228e-01 6.430729624450206572e-01 6.430729624450206572e-01 6.469377816954883231e-01 6.599070324109100882e-01 6.623891210936407870e-01 5.111920579456492586e-01 5.097529703915119059e-01 5.097529703915119059e-01 5.059611770952530119e-01 5.097529703915119059e-01 5.097529703915119059e-01 5.097529703915119059e-01 5.097529703915119059e-01 5.058317941546439656e-01 5.058317941546439656e-01 5.058317941546439656e-01 5.058317941546439656e-01 5.019106179177761362e-01 5.019106179177761362e-01 5.057389241911393052e-01 5.058317941546439656e-01 5.056809796839953908e-01 5.019106179177761362e-01 5.058317941546439656e-01 5.056809796839953908e-01 5.056809796839953908e-01 5.056809796839953908e-01 5.058317941546439656e-01 5.058317941546439656e-01 5.058317941546439656e-01 5.058317941546439656e-01 5.058317941546439656e-01 5.056809796839953908e-01 5.058317941546439656e-01 5.058317941546439656e-01 5.097378889444470484e-01 5.058317941546439656e-01 5.058317941546439656e-01 5.058294128735284501e-01 5.019106179177761362e-01 5.019106179177761362e-01 5.058317941546439656e-01 5.058317941546439656e-01 5.097529703915119059e-01 5.097529703915119059e-01 5.058317941546439656e-01 5.019106179177761362e-01 5.058317941546439656e-01 5.097529703915119059e-01 5.058317941546439656e-01 3.751835703105819153e-01 3.725117723017931093e-01 3.725117723017931093e-01 3.725117723017931093e-01 3.725117723017931093e-01 3.725117723017931093e-01 3.725117723017931093e-01 3.725117723017931093e-01 3.762821340680124194e-01 3.764329485386609941e-01 3.725117723017931093e-01 3.725117723017931093e-01 3.760638499657573686e-01 3.725117723017931093e-01
7.646294257879256984e-01 7.607082495510578690e-01 7.646294257879256984e-01 7.685506020247936387e-01 7.724717782616614681e-01 6.626788436293602480e-01 6.705211961030960177e-01 6.693861187713714411e-01 5.105165678692313858e-01 5.019106179177761362e-01 4.991506921307509170e-01 5.058317941546439656e-01 5.058317941546439656e-01 5.058317941546439656e-01 5.058317941546439656e-01 5.058317941546439656e-01 5.068874954491854323e-01 5.097529703915119059e-01 5.097529703915119059e-01 5.097529703915119059e-01 5.058317941546439656e-01 5.012708421960789806e-01 4.940682356446981505e-01 5.019106179177761362e-01 6.430729624450206572e-01 6.469941386818885976e-01 6.391517862081527168e-01 6.391517862081527168e-01 6.391517862081527168e-01 6.391517862081527168e-01 7.193850845932924232e-01 6.352306099712848875e-01 6.313094337344169471e-01 6.323651350289584139e-01 6.434230107690002143e-01 6.548364911556243673e-01 6.516987564057582505e-01 5.097529703915119059e-01 5.097529703915119059e-01 5.097529703915119059e-01 5.097529703915119059e-01 5.097529703915119059e-01 5.069629026845100528e-01 5.058317941546439656e-01 5.058317941546439656e-01 5.058317941546439656e-01 5.058317941546439656e-01 5.058317941546439656e-01 5.058317941546439656e-01 5.019106179177761362e-01 5.019106179177761362e-01 4.987061829444603966e-01 4.940682356446980950e-01 4.951239369392395617e-01 4.979894118815659798e-01 4.979894118815659798e-01 4.942293690001807738e-01 4.940682356446981505e-01 4.979894118815659798e-01 4.990062266452068851e-01 5.019106179177761362e-01 5.058317941546439656e-01 5.056055724486708813e-01 4.990451211990073466e-01 4.993919971175946881e-01 5.019106179177761362e-01 5.055452466604113404e-01 5.019106179177761362e-01 5.019106179177761362e-01 5.019106179177761362e-01 5.019106179177761362e-01 5.019106179177761362e-01 5.058317941546439656e-01 5.058317941546439656e-01 5.058317941546439656e-01 5.097529703915119059e-01 5.097529703915119059e-01 5.058317941546439656e-01 5.058317941546439656e-01 5.097529703915119059e-01 5.058317941546439656e-01 5.058317941546439656e-01 5.058317941546439656e-01 3.764329485386609941e-01 3.725117723017931093e-01 3.725117723017931093e-01 3.725117723017931093e-01 3.725117723017931093e-01 3.725117723017931093e-01 3.725117723017931093e-01 3.764329485386609941e-01 3.764329485386609941e-01 3.764329485386609941e-01 3.764329485386609941e-01 3.764329485386609941e-01
7.646294257879256984e-01 7.607082495510578690e-01 7.607082495510578690e-01 7.646294257879256984e-01 7.692316484238281848e-01 6.626788436293602480e-01 6.744709477133494779e-01 6.682073846191954880e-01 5.097529703915119059e-01 5.042482422128320430e-01 5.019106179177761362e-01 5.019106179177761362e-01 5.019106179177761362e-01 5.019106179177761362e-01 5.019106179177761362e-01 5.019106179177761362e-01 5.019106179177761362e-01 5.041728349775076445e-01 5.058317941546439656e-01 5.097529703915119059e-01 5.074907533317802866e-01 5.019106179177761362e-01 4.940682356446980394e-01 5.019106179177761362e-01 6.474569009786685925e-01 6.564692562404899068e-01 6.493555757880996593e-01 6.456249020404718486e-01 6.469941386818885976e-01 7.367422426442178374e-01 7.607082495510578690e-01 7.584460324913262497e-01 6.946554802087592240e-01 6.391517862081527168e-01 6.430729624450206572e-01 6.586132030048185149e-01 6.548364911556243673e-01 5.097529703915119059e-01 5.097529703915119059e-01 5.097529703915119059e-01 5.097529703915119059e-01 5.058317941546439656e-01 5.058317941546439656e-01 5.058317941546439656e-01 5.058317941546439656e-01 5.058317941546439656e-01 5.058317941546439656e-01 5.058317941546439656e-01 5.058317941546439656e-01 5.058317941546439656e-01 5.025480074963601940e-01 4.991157664089711510e-01 4.940682356446980950e-01 4.884920690325529891e-01 4.901470594078302101e-01 4.901470594078302101e-01 4.918060185849664201e-01 4.918060185849664201e-01 4.940682356446980950e-01 4.940682356446980950e-01 4.979894118815659798e-01 4.994547046635178233e-01 4.998269811070367163e-01 5.058317941546439656e-01 5.058317941546439656e-01 5.058317941546439656e-01 5.058317941546439656e-01 5.058317941546439656e-01 5.058317941546439656e-01 5.058317941546439656e-01 5.058317941546439656e-01 5.058317941546439656e-01 5.058317941546439656e-01 5.019106179177761362e-01 5.019106179177761362e-01 5.041728349775077556e-01 5.058317941546439656e-01 5.058317941546439656e-01 5.072558002617169048e-01 5.097529703915119059e-01 5.097529703915119059e-01 5.097529703915119059e-01 5.097529703915119059e-01 5.097529703915119059e-01 5.074907533317801756e-01 3.764329485386609386e-01 3.725117723017931093e-01 3.725117723017931093e-01 3.725117723017931093e-01 3.725117723017931093e-01 3.764329485386609941e-01 3.764329485386609941e-01 3.764329485386609941e-01 3.764329485386609941e-01 3.764329485386609941e-01
7.724717782616614681e-01 7.685506020247936387e-01 7.647365834381235628e-01 7.685506020247936387e-01 7.527214326896589647e-01 6.661801206295268063e-01 6.822847248136997278e-01 6.626788436293602480e-01 5.097529703915119059e-01 5.058317941546439656e-01 4.978060532356720636e-01 4.901470594078302101e-01 4.896946159958839861e-01 4.919544517744997014e-01 4.936157922327518710e-01 4.936157922327518710e-01 4.940682356446980950e-01 4.979894118815659798e-01 4.979894118815659798e-01 5.019106179177761362e-01 5.097529703915119059e-01 5.058317941546439656e-01 4.979894118815659798e-01 5.019106179177761362e-01 6.548364911556243673e-01 6.626788436293602480e-01 6.628193392151751073e-01 6.548364911556243673e-01 6.513677583307027064e-01 6.548364911556243673e-01 7.685506020247936387e-01 7.685506020247936387e-01 7.610178160960741067e-01 6.469941386818885976e-01 6.485967408726244221e-01 6.626788436293602480e-01 6.548364911556243673e-01 5.860095293137632666e-01 5.097529703915119059e-01 5.097529703915119059e-01 5.097529703915119059e-01 5.058317941546439656e-01 5.058317941546439656e-01 5.058317941546439656e-01 5.058317941546439656e-01 5.058317941546439656e-01 5.089480973744702208e-01 5.097529703915119059e-01 5.097529703915119059e-01 5.058317941546439656e-01 5.058317941546439656e-01 5.019106179177761362e-01 4.984299522358364154e-01 4.979894118815659798e-01 4.940682356446980950e-01 4.984418587318977800e-01 5.019106179177761362e-01 5.019106179177761362e-01 5.019106179177761362e-01 5.019106179177761362e-01 5.019106179177761362e-01 4.979894118815659798e-01 5.019106179177761362e-01 5.058317941546439656e-01 5.058317941546439656e-01 5.058317941546439656e-01 5.058317941546439656e-01 5.058317941546439656e-01 5.058317941546439656e-01 5.058317941546439656e-01 5.058317941546439656e-01 5.058317941546439656e-01 5.097529703915119059e-01 5.059056138692246130e-01 5.058317941546439656e-01 5.019106179177761362e-01 5.019106179177761362e-01 5.019106179177761362e-01 5.058317941546439656e-01 5.058317941546439656e-01 5.097529703915119059e-01 5.097529703915119059e-01 5.097529703915119059e-01 5.097529703915119059e-01 5.097529703915119059e-01 5.058317941546439656e-01 3.725117723017931093e-01 3.725117723017931093e-01 3.708813884980428632e-01 3.725117723017931093e-01 3.725117723017931093e-01 3.764329485386609386e-01 3.764329485386609386e-01 3.759805051267148812e-01 3.764329485386609386e-01
7.724717782616614681e-01 7.724717782616614681e-01 7.685506020247936387e-01 7.685506020247936387e-01 6.600618156834179295e-01 6.705211961030961287e-01 6.747559076868390182e-01 6.649291542835144009e-01 5.136741466283798463e-01 5.097529703915119059e-01 4.998730195584744074e-01 4.900637145687875007e-01 4.862258831709622697e-01 4.854718108177183966e-01 4.823047069340944404e-01 4.823047069340944404e-01 4.862258831709622697e-01 4.901470594078302101e-01 4.901470594078302101e-01 4.940682356446980950e-01 5.022559036795246623e-01 5.058317941546439656e-01 5.019106179177761362e-01 5.019106179177761362e-01 5.058317941546439656e-01 6.587576673924923076e-01 6.671199329097803332e-01 6.606745986904756229e-01 6.547610839202999689e-01 6.534656669934640894e-01 6.548364911556243673e-01 6.726206922866030391e-01 6.469941386818887086e-01 6.467123537498868924e-01 6.548364911556243673e-01 6.587576673924923076e-01 6.548364911556243673e-01 6.509153149187565379e-01 5.097529703915119059e-01 5.097529703915119059e-01 5.097529703915119059e-01 5.097529703915119059e-01 5.097529703915119059e-01 5.058317941546439656e-01 5.058317941546439656e-01 5.058317941546439656e-01 5.089480973744702208e-01 5.097529703915119059e-01 5.097529703915119059e-01 5.097529703915119059e-01 5.058317941546439656e-01 5.058317941546439656e-01 5.019106179177761362e-01 5.019106179177761362e-01 5.019106179177761362e-01 5.058317941546439656e-01 5.058317941546439656e-01 5.019106179177761362e-01 5.019106179177761362e-01 5.050777218014000924e-01 5.050777218014000924e-01 4.979894118815659798e-01 5.022201844627919298e-01 5.058317941546439656e-01 5.058317941546439656e-01 5.058317941546439656e-01 5.058317941546439656e-01 5.058317941546439656e-01 5.058317941546439656e-01 5.058317941546439656e-01 5.058317941546439656e-01 5.058317941546439656e-01 5.097529703915119059e-01 5.097529703915119059e-01 5.058317941546439656e-01 5.058317941546439656e-01 5.019106179177761362e-01 5.016526438364464768e-01 5.019106179177761362e-01 5.026646902710200093e-01 5.058317941546439656e-01 5.058317941546439656e-01 5.058317941546439656e-01 5.058317941546439656e-01 5.058317941546439656e-01 5.019106179177761362e-01 5.018939488232904145e-01 4.979894118815659798e-01 3.654234921813012127e-01 3.685905960649251689e-01 3.685905960649251689e-01 3.685905960649251689e-01 3.685905960649251689e-01 3.685905960649251689e-01 3.693446684181692086e-01
7.763929544985295195e-01 7.724717782616614681e-01 7.685506020247936387e-01 6.548364911556243673e-01 6.649799549473114357e-01 6.820473904625206085e-01 6.705211961030960177e-01 6.666000198662280773e-01 5.924897889894273906e-01 5.136741466283798463e-01 5.097529703915119059e-01 5.803341426551299476e-01 6.493158877695078823e-01 5.764129664182621182e-01 5.019106179177761362e-01 5.019106179177761362e-01 5.019106179177761362e-01 5.019106179177761362e-01 4.960288237631319541e-01 4.994650236267711430e-01 5.047689490167559523e-01 5.058317941546439656e-01 5.041291781570567121e-01 5.019106179177761362e-01 5.058317941546439656e-01 6.536601382845579344e-01 6.548364911556243673e-01 6.595315837550319582e-01 6.685606079846622141e-01 6.646394317477940517e-01 6.646394317477940517e-01 6.583345931143040897e-01 6.548364911556243673e-01 6.548364911556243673e-01 6.652895214923273404e-01 6.567970792740582819e-01 6.548364911556243673e-01 6.548364911556243673e-01 6.548364911556243673e-01 5.097529703915119059e-01 5.097529703915119059e-01 5.097529703915119059e-01 5.097529703915119059e-01 5.058317941546439656e-01 5.058317941546439656e-01 5.058317941546439656e-01 5.093505338829911189e-01 5.097529703915119059e-01 5.097529703915119059e-01 5.097529703915119059e-01 5.097529703915119059e-01 5.058317941546439656e-01 5.058317941546439656e-01 5.058317941546439656e-01 5.019106179177761362e-01 5.021892278082904504e-01 5.019106179177761362e-01 5.019106179177761362e-01 5.043768313930692138e-01 5.058317941546439656e-01 5.058317941546439656e-01 5.019106179177761362e-01 5.058317941546439656e-01 5.097529703915119059e-01 5.058317941546439656e-01 5.058317941546439656e-01 5.058317941546439656e-01 5.058317941546439656e-01 5.058317941546439656e-01 5.058317941546439656e-01 5.097529703915119059e-01 5.097529703915119059e-01 5.058317941546439656e-01 5.041910914660598930e-01 5.019106179177761362e-01 4.999500148996711690e-01 5.019106179177761362e-01 5.019106179177761362e-01 5.006620233641407847e-01 5.019106179177761362e-01 4.979894118815659798e-01 5.019106179177761362e-01 5.019106179177761362e-01 5.019106179177761362e-01 5.058317941546439656e-01 4.979894118815659798e-01 4.940682356446980950e-01 4.901470594078302101e-01 4.901470594078302101e-01 3.646694198280573396e-01 3.607482435911893992e-01 3.607482435911893992e-01 3.607482435911893992e-01 3.607482435911893992e-01 3.646694198280572841e-01
6.626788436293602480e-01 6.587576673924923076e-01 6.587576673924923076e-01 6.587576673924923076e-01 6.705211961030960177e-01 6.748257585995608432e-01 6.705211961030960177e-01 6.705211961030960177e-01 6.705211961030960177e-01 6.705211961030960177e-01 6.712752684563397798e-01 6.752797895322502075e-01 6.791176209300755495e-01 6.791176209300755495e-01 6.712752684563397798e-01 6.636496125641153654e-01 5.097529703915119059e-01 5.097529703915119059e-01 5.096029496812352066e-01 5.058317941546439656e-01 5.058317941546439656e-01 5.058317941546439656e-01 5.058317941546439656e-01 5.058317941546439656e-01 5.097529703915119059e-01 5.058937074636474795e-01 6.230146378487367853e-01 6.509153149187565379e-01 6.548364911556243673e-01 6.587576673924923076e-01 6.619247712761163749e-01 6.626788436293602480e-01 6.626788436293602480e-01 6.619247712761163749e-01 6.587576673924923076e-01 6.548364911556243673e-01 6.548364911556243673e-01 6.587576673924923076e-01 6.587576673924921966e-01 6.548364911556243673e-01 5.097529703915119059e-01 5.097529703915119059e-01 5.097529703915119059e-01 5.058317941546439656e-01 5.058317941546439656e-01 5.058317941546439656e-01 5.097529703915119059e-01 5.097529703915119059e-01 5.097529703915119059e-01 5.097529703915119059e-01 5.097529703915119059e-01 5.058317941546439656e-01 5.058317941546439656e-01 5.019106179177761362e-01 5.015812048600785111e-01 5.019106179177761362e-01 5.019106179177761362e-01 5.058317941546439656e-01 5.074026459305065462e-01 5.058317941546439656e-01 5.019106179177761362e-01 5.019106179177761362e-01 5.051372538292878689e-01 5.058317941546439656e-01 5.058317941546439656e-01 5.097529703915119059e-01 5.059072013899683640e-01 5.058317941546439656e-01 5.097529703915119059e-01 5.097529703915119059e-01 5.097529703915119059e-01 5.076487116457759630e-01 5.046609976061867675e-01 4.979894118815659798e-01 4.940682356446980950e-01 4.940682356446980950e-01 4.940682356446980394e-01 4.940682356446981505e-01 4.940682356446980950e-01 5.019106179177761362e-01 5.019106179177761362e-01 4.979894118815659798e-01 5.024940317910751020e-01 5.058317941546439656e-01 5.058317941546439656e-01 5.048816629895568342e-01 5.019106179177761362e-01 4.987434899654524800e-01 4.987434899654524800e-01 4.979894118815659798e-01 3.685905960649251689e-01 3.685905960649251689e-01 3.685905960649251689e-01 3.685905960649251689e-01 3.685905960649251689e-01
6.626788436293602480e-01 6.587576673924923076e-01 6.595792093773424902e-01 6.626788436293602480e-01 6.705997783799076961e-01 6.822299553480428713e-01 6.822847248136997278e-01 6.822847248136997278e-01 6.857352011500685851e-01 6.872465208980442775e-01 6.808789751951792590e-01 6.709736395150424082e-01 6.705211961030959067e-01 6.705211961030960177e-01 6.788159919887781779e-01 6.818632380562550388e-01 6.626788436293602480e-01 5.109396421474057259e-01 5.136741466283798463e-01 5.133336234288623512e-01 5.132217032164334558e-01 5.097529703915119059e-01 5.093600590074531809e-01 5.097529703915119059e-01 5.097529703915119059e-01 5.097529703915119059e-01 5.058317941546439656e-01 5.058317941546439656e-01 5.354065118488623432e-01 6.548364911556243673e-01 6.583052239805459172e-01 6.587576673924924187e-01 6.587576673924923076e-01 6.548364911556243673e-01 6.548364911556243673e-01 6.548364911556243673e-01 6.548364911556243673e-01 6.587576673924923076e-01 6.587576673924921966e-01 6.548364911556243673e-01 6.548364911556243673e-01 5.097529703915119059e-01 5.097529703915119059e-01 5.058317941546439656e-01 5.058317941546439656e-01 5.058317941546439656e-01 5.097529703915119059e-01 5.097529703915119059e-01 5.097529703915119059e-01 5.097529703915119059e-01 5.058317941546439656e-01 5.058317941546439656e-01 5.058317941546439656e-01 5.019106179177761362e-01 4.995047119469755437e-01 5.019106179177761362e-01 5.019106179177761362e-01 5.058317941546439656e-01 5.088584024524531735e-01 5.058317941546439656e-01 4.992896012514674853e-01 4.979894118815659798e-01 4.980251313697500737e-01 5.058317941546439656e-01 5.058317941546439656e-01 5.097529703915119059e-01 5.097529703915119059e-01 5.079312903381489885e-01 5.097529703915119059e-01 5.097529703915119059e-01 5.058317941546439656e-01 5.058317941546439656e-01 5.058317941546439656e-01 5.019106179177761362e-01 5.014581710674440584e-01 4.979894118815659798e-01 4.979894118815659798e-01 4.979894118815659798e-01 5.014581710674440584e-01 5.053793507426975751e-01 5.058317941546439656e-01 5.019106179177761362e-01 5.019939627568188456e-01 5.058317941546439656e-01 5.058317941546439656e-01 5.058317941546439656e-01 5.058317941546439656e-01 5.097529703915119059e-01 5.078582643839403277e-01 5.049594515059967481e-01 3.923930929136509316e-01 3.759805051267144926e-01 3.764329485386610497e-01 3.764329485386610497e-01 3.759805051267144926e-01
6.660150184721853606e-01 6.626788436293602480e-01 6.626788436293602480e-01 6.666000198662280773e-01 6.705211961030960177e-01 6.744423723399638471e-01 6.712109738662213054e-01 6.705211961030960177e-01 6.721801552802324498e-01 6.705211961030960177e-01 6.705211961030960177e-01 6.666000198662280773e-01 6.666000198662280773e-01 6.666000198662280773e-01 6.705211961030960177e-01 6.742875890674557837e-01 6.742074192699007984e-01 6.626788436293602480e-01 5.136741466283798463e-01 5.136741466283798463e-01 5.136741466283798463e-01 5.097529703915119059e-01 5.097529703915119059e-01 5.097529703915119059e-01 5.097529703915119059e-01 5.097529703915119059e-01 5.097529703915119059e-01 5.097529703915119059e-01 5.097529703915119059e-01 5.097529703915119059e-01 5.097529703915119059e-01 6.548364911556243673e-01 6.584481008474760699e-01 6.564954503327609103e-01 6.587576673924923076e-01 6.548364911556243673e-01 6.548364911556243673e-01 6.548364911556243673e-01 6.548364911556243673e-01 6.548364911556243673e-01 6.548364911556243673e-01 6.548364911556243673e-01 6.548364911556243673e-01 6.548364911556243673e-01 5.058317941546439656e-01 5.058317941546439656e-01 5.058317941546439656e-01 5.058317941546439656e-01 5.058317941546439656e-01 5.095505614966936436e-01 5.097529703915119059e-01 5.058317941546439656e-01 5.058317941546439656e-01 5.019106179177761362e-01 5.028988495807111825e-01 5.058317941546439656e-01 5.058317941546439656e-01 5.058317941546439656e-01 5.058317941546439656e-01 5.019106179177761362e-01 4.979894118815659798e-01 4.979894118815659798e-01 4.978584414202130715e-01 5.019106179177761362e-01 5.058317941546439656e-01 5.065953916323497896e-01 5.097529703915119059e-01 5.097529703915119059e-01 5.097529703915119059e-01 5.097529703915119059e-01 5.058317941546439656e-01 5.058317941546439656e-01 5.097529703915119059e-01 5.058317941546439656e-01 5.058317941546439656e-01 5.058317941546439656e-01 5.058317941546439656e-01 5.058317941546439656e-01 5.097529703915119059e-01 5.097529703915119059e-01 5.097529703915119059e-01 5.097529703915119059e-01 5.058317941546439656e-01 5.058317941546439656e-01 5.019106179177761362e-01 5.058317941546439656e-01 5.058317941546439656e-01 5.090981180847472531e-01 5.097529703915119059e-01 5.058317941546439656e-01 5.058317941546439656e-01 3.764329485386609941e-01 3.764329485386609941e-01 3.764329485386609941e-01 3.764329485386609941e-01
6.691384655353588284e-01 6.666000198662280773e-01 6.626788436293602480e-01 6.666000198662280773e-01 6.705211961030960177e-01 6.705211961030960177e-01 6.666000198662280773e-01 6.666000198662280773e-01 6.705005583334279207e-01 6.972153574079279492e-01 7.803141307353971268e-01 7.803141307353971268e-01 7.803141307353971268e-01 7.803141307353971268e-01 6.674167992888470069e-01 6.705211961030960177e-01 6.801884036716816517e-01 6.666000198662280773e-01 6.626788436293602480e-01 5.136741466283798463e-01 5.118786606672880435e-01 5.097529703915119059e-01 5.097529703915119059e-01 5.097529703915119059e-01 5.097529703915119059e-01 5.097529703915119059e-01 5.097529703915119059e-01 5.097529703915119059e-01 5.097529703915119059e-01 5.097529703915119059e-01 5.097529703915119059e-01 5.733665141111540242e-01 6.548364911556243673e-01 6.548364911556243673e-01 6.587576673924923076e-01 6.587576673924923076e-01 6.587576673924923076e-01 6.571741154506801630e-01 6.583203054276109967e-01 6.548364911556243673e-01 6.548364911556243673e-01 6.548364911556243673e-01 6.548364911556243673e-01 6.509153149187565379e-01 6.509153149187565379e-01 6.509153149187565379e-01 5.058317941546439656e-01 5.058317941546439656e-01 5.058317941546439656e-01 5.058317941546439656e-01 5.058317941546439656e-01 5.058317941546439656e-01 5.058317941546439656e-01 5.019106179177761362e-01 5.036235528001968831e-01 5.097529703915119059e-01 5.097529703915119059e-01 5.058317941546439656e-01 5.058317941546439656e-01 5.019106179177761362e-01 5.019106179177761362e-01 4.986506192961739359e-01 4.989617757265776277e-01 5.016828069598019413e-01 5.058317941546439656e-01 5.058317941546439656e-01 5.097529703915119059e-01 5.121263139033002121e-01 6.587576673924923076e-01 6.548364911556243673e-01 5.058317941546439656e-01 5.058317941546439656e-01 5.097529703915119059e-01 5.097529703915119059e-01 5.097529703915119059e-01 5.060929413169777957e-01 5.097529703915119059e-01 5.097529703915119059e-01 5.097529703915119059e-01 5.097529703915119059e-01 5.097529703915119059e-01 5.097529703915119059e-01 5.090306484531417208e-01 5.058317941546439656e-01 5.019106179177761362e-01 5.019106179177761362e-01 5.058317941546439656e-01 5.058317941546439656e-01 5.097529703915119059e-01 5.097529703915119059e-01 5.097529703915119059e-01 5.097529703915119059e-01 3.764329485386609941e-01 3.764329485386609941e-01 3.764329485386609941e-01
6.666000198662280773e-01 6.666000198662280773e-01 6.666000198662280773e-01 6.684367813666552971e-01 6.705211961030960177e-01 6.670746885685862049e-01 6.666000198662280773e-01 6.666000198662280773e-01 7.842353069722652892e-01 7.803141307353972378e-01 7.803141307353972378e-01 7.803141307353972378e-01 7.803141307353972378e-01 7.803141307353972378e-01 7.842353069722651782e-01 6.666000198662280773e-01 6.691519594616792688e-01 6.706204161495754601e-01 6.626788436293602480e-01 6.626788436293602480e-01 5.136741466283798463e-01 5.097529703915119059e-01 5.097529703915119059e-01 5.097529703915119059e-01 5.097529703915119059e-01 5.097529703915119059e-01 5.097529703915119059e-01 5.097529703915119059e-01 5.097529703915119059e-01 5.097529703915119059e-01 5.097529703915119059e-01 6.548364911556243673e-01 6.548364911556243673e-01 6.548364911556243673e-01 6.587576673924923076e-01 6.626788436293602480e-01 6.626788436293602480e-01 6.643655844195107685e-01 6.626788436293602480e-01 6.592934556434817406e-01 6.548364911556243673e-01 6.509153149187565379e-01 6.509153149187565379e-01 6.509153149187565379e-01 6.509153149187565379e-01 6.509153149187565379e-01 5.058317941546439656e-01 5.058317941546439656e-01 5.058317941546439656e-01 5.092648077628326719e-01 5.097529703915119059e-01 5.058317941546439656e-01 5.058317941546439656e-01 5.058317941546439656e-01 5.057659120437816291e-01 5.058317941546439656e-01 5.065580848948737502e-01 5.058317941546439656e-01 5.020614323884249330e-01 5.019106179177761362e-01 5.019106179177761362e-01 5.019106179177761362e-01 5.019106179177761362e-01 5.010644629310148090e-01 5.058317941546439656e-01 5.097529703915119059e-01 5.097529703915119059e-01 5.097529703915119059e-01 5.097529703915119059e-01 5.097529703915119059e-01 5.058317941546439656e-01 5.058317941546439656e-01 5.097529703915119059e-01 5.097529703915119059e-01 5.097529703915119059e-01 5.097529703915119059e-01 5.058317941546439656e-01 5.058317941546439656e-01 5.097529703915119059e-01 5.097529703915119059e-01 5.097529703915119059e-01 5.097529703915119059e-01 5.058317941546439656e-01 5.058317941546439656e-01 5.019106179177761362e-01 5.019106179177761362e-01 5.058317941546439656e-01 5.058317941546439656e-01 5.097529703915119059e-01 5.097529703915119059e-01 5.097529703915119059e-01 5.097529703915119059e-01 5.097529703915119059e-01 3.764329485386609941e-01 3.764329485386609941e-01
6.626788436293602480e-01 6.666000198662280773e-01 6.666000198662280773e-01 6.666000198662280773e-01 7.477882119786862791e-01 7.803141307353973488e-01 7.803141307353973488e-01 7.803141307353973488e-01 7.803141307353973488e-01 7.816714609712361872e-01 7.803141307353973488e-01 7.803141307353973488e-01 7.803141307353973488e-01 7.803141307353973488e-01 7.803141307353973488e-01 7.763929544985295195e-01 6.596220724374211031e-01 6.705211961030960177e-01 6.664142799392189787e-01 6.626788436293602480e-01 6.357616356600482854e-01 5.097529703915119059e-01 5.123168163925408969e-01 5.136741466283798463e-01 5.136741466283798463e-01 5.123382479225806474e-01 5.097529703915119059e-01 5.097529703915119059e-01 5.097529703915119059e-01 5.097529703915119059e-01 6.548364911556243673e-01 6.548364911556243673e-01 6.548364911556243673e-01 6.564422683878476938e-01 6.596077847507280101e-01 6.626788436293602480e-01 6.655887691525090855e-01 6.705211961030960177e-01 6.626788436293602480e-01 6.589505511628485079e-01 6.526282498011781730e-01 6.509153149187565379e-01 6.509153149187565379e-01 6.509153149187565379e-01 6.479791953033365859e-01 6.509153149187565379e-01 6.509153149187565379e-01 5.090743052735923202e-01 5.097529703915119059e-01 5.097529703915119059e-01 5.097529703915119059e-01 5.088314145998107385e-01 5.097529703915119059e-01 5.068843204076982634e-01 5.058317941546439656e-01 5.058317941546439656e-01 5.058317941546439656e-01 5.058317941546439656e-01 5.019106179177761362e-01 5.019106179177761362e-01 4.979894118815659798e-01 5.019106179177761362e-01 5.058317941546439656e-01 5.024638688969456091e-01 5.097529703915119059e-01 5.097529703915119059e-01 5.097529703915119059e-01 5.097529703915119059e-01 5.097529703915119059e-01 5.083551583767097481e-01 5.058317941546439656e-01 5.058317941546439656e-01 5.097529703915119059e-01 5.097529703915119059e-01 5.097529703915119059e-01 5.097529703915119059e-01 5.058317941546439656e-01 5.058317941546439656e-01 5.058317941546439656e-01 5.097529703915119059e-01 5.058317941546439656e-01 5.058317941546439656e-01 5.058317941546439656e-01 5.058317941546439656e-01 5.034997261821909653e-01 5.058317941546439656e-01 5.058317941546439656e-01 5.093600590074531809e-01 5.097529703915119059e-01 5.058317941546439656e-01 5.097529703915119059e-01 5.097529703915119059e-01 5.097529703915119059e-01 5.097529703915119059e-01 3.764329485386609941e-01
6.626788436293602480e-01 6.626788436293602480e-01 6.666000198662280773e-01 7.803141307353973488e-01 7.803141307353971268e-01 7.803141307353973488e-01 7.803141307353973488e-01 7.767858658825879115e-01 7.764064484248509590e-01 7.750356242626905701e-01 7.750356242626905701e-01 7.763929544985295195e-01 7.763929544985295195e-01 7.763929544985295195e-01 7.750356242626905701e-01 7.724717782616614681e-01 6.548364911556243673e-01 6.635559488402383854e-01 6.703354561760868080e-01 6.662642592289415022e-01 6.626788436293602480e-01 6.626788436293602480e-01 5.136741466283798463e-01 5.175953228652476756e-01 5.136741466283798463e-01 5.097529703915119059e-01 5.058317941546439656e-01 5.097529703915119059e-01 5.097529703915119059e-01 6.548364911556243673e-01 6.548364911556243673e-01 6.587576673924924187e-01 6.587576673924923076e-01 6.596077847507281211e-01 6.626788436293602480e-01 6.626788436293602480e-01 6.666000198662280773e-01 6.666000198662280773e-01 6.587576673924921966e-01 6.548364911556243673e-01 6.509153149187565379e-01 6.469941386818885976e-01 6.509153149187565379e-01 6.548364911556243673e-01 6.522726451545953763e-01 6.510367602556472733e-01 6.548364911556243673e-01 6.548364911556243673e-01 5.097529703915119059e-01 5.097529703915119059e-01 5.097529703915119059e-01 5.097529703915119059e-01 5.097529703915119059e-01 5.058317941546439656e-01 5.058317941546439656e-01 5.052745743736154482e-01 5.025091132381404035e-01 5.019106179177761362e-01 5.019106179177761362e-01 5.019106179177761362e-01 5.019106179177761362e-01 5.032679481536149746e-01 5.059389518048417189e-01 5.058317941546439656e-01 5.097529703915119059e-01 5.097529703915119059e-01 5.097529703915119059e-01 5.097529703915119059e-01 5.097529703915119059e-01 5.097529703915119059e-01 5.097529703915119059e-01 5.097529703915119059e-01 5.097529703915119059e-01 5.097529703915119059e-01 5.097529703915119059e-01 5.097529703915119059e-01 5.097529703915119059e-01 5.097529703915119059e-01 5.083289642844390777e-01 5.058317941546439656e-01 5.019106179177761362e-01 5.019106179177761362e-01 5.023829053390180821e-01 5.046244846290821595e-01 5.058317941546439656e-01 5.067819253197312079e-01 5.058317941546439656e-01 5.076534742080064389e-01 5.097529703915119059e-01 5.058317941546439656e-01 5.097529703915119059e-01 5.097529703915119059e-01 5.136741466283798463e-01 5.097529703915119059e-01 4.510599346034305790e-01
6.626788436293602480e-01 6.629320531879754341e-01 7.763929544985295195e-01 7.801633162647484410e-01 7.795084639579844543e-01 7.762421400278807226e-01 7.685506020247936387e-01 7.725154350821124005e-01 7.763929544985295195e-01 7.803141307353972378e-01 7.803141307353972378e-01 7.763929544985295195e-01 7.724717782616614681e-01 7.723209637910126713e-01 7.685506020247936387e-01 7.685506020247936387e-01 6.563700361940114636e-01 6.561263517598568962e-01 6.664563492389258270e-01 6.666000198662280773e-01 6.666000198662280773e-01 6.626788436293602480e-01 6.626788436293602480e-01 6.626788436293602480e-01 6.626788436293602480e-01 6.548388724367398828e-01 6.548364911556243673e-01 6.564756063234645778e-01 6.587576673924923076e-01 6.587576673924923076e-01 6.626788436293602480e-01 6.626788436293602480e-01 6.626788436293602480e-01 6.626788436293602480e-01 6.587576673924923076e-01 6.587576673924923076e-01 6.625280291587114512e-01 6.625280291587114512e-01 6.580313766522629670e-01 6.514725346997854993e-01 6.469941386818885976e-01 6.469941386818885976e-01 6.506652804016279656e-01 6.548364911556243673e-01 6.548364911556243673e-01 6.548364911556243673e-01 6.548364911556243673e-01 6.548364911556243673e-01 6.548364911556243673e-01 5.097529703915119059e-01 5.097529703915119059e-01 5.097529703915119059e-01 5.097529703915119059e-01 5.058317941546439656e-01 5.059167265144304260e-01 5.051451914330061799e-01 5.019106179177761362e-01 5.019106179177761362e-01 5.058317941546439656e-01 5.058317941546439656e-01 5.058317941546439656e-01 5.058317941546439656e-01 5.097529703915119059e-01 5.098712406869154723e-01 5.136741466283798463e-01 5.136741466283798463e-01 5.099037848621607028e-01 5.136741466283798463e-01 5.136741466283798463e-01 5.136741466283798463e-01 5.136741466283798463e-01 5.136741466283798463e-01 5.098839408528648143e-01 5.130589823402071925e-01 5.136741466283798463e-01 5.127414781914733100e-01 5.097529703915119059e-01 5.097529703915119059e-01 5.097529703915119059e-01 5.058214752698101391e-01 5.019106179177761362e-01 4.981402274983433576e-01 5.018828360936329336e-01 5.019106179177761362e-01 5.058317941546439656e-01 5.058317941546439656e-01 5.058317941546439656e-01 5.058317941546439656e-01 5.096648629902381655e-01 5.097529703915119059e-01 5.097529703915119059e-01 5.097529703915119059e-01 5.097529703915119059e-01 5.097529703915119059e-01 5.058317941546439656e-01
7.457776169568328672e-01 7.763929544985295195e-01 7.803141307353972378e-01 7.763929544985295195e-01 7.694229446734409672e-01 7.688974753072861379e-01 7.730885300705775398e-01 7.803141307353973488e-01 7.842353069722654002e-01 7.842353069722654002e-01 7.842353069722654002e-01 7.798807375723754154e-01 7.692729239631643789e-01 7.632570141050215584e-01 7.646294257879256984e-01 7.646294257879256984e-01 6.907874859168123827e-01 6.509153149187565379e-01 6.560279254737493293e-01 6.637345449239014927e-01 6.705211961030960177e-01 6.666000198662280773e-01 6.626788436293602480e-01 6.666000198662280773e-01 6.702267110051451926e-01 6.705211961030960177e-01 6.733866710454226023e-01 6.733866710454226023e-01 6.770212997880580286e-01 6.733866710454226023e-01 6.719840964683888584e-01 6.705211961030960177e-01 6.694654948085547730e-01 6.637496263709666833e-01 6.587576673924923076e-01 6.548364911556243673e-01 6.548364911556243673e-01 6.548364911556243673e-01 6.548364911556243673e-01 6.509153149187565379e-01 6.469941386818885976e-01 6.430729624450206572e-01 6.508121260704176070e-01 6.548364911556243673e-01 6.548364911556243673e-01 6.548364911556243673e-01 6.548364911556243673e-01 6.548364911556243673e-01 6.548364911556243673e-01 5.097529703915119059e-01 5.058317941546439656e-01 5.058317941546439656e-01 5.097529703915119059e-01 5.097529703915119059e-01 5.058317941546439656e-01 5.058317941546439656e-01 4.984267771702203254e-01 5.006286851751686751e-01 5.019106179177761362e-01 5.019106179177761362e-01 5.019106179177761362e-01 5.019106179177761362e-01 5.100625369365276995e-01 5.173675136385308404e-01 5.175953228652476756e-01 5.136741466283798463e-01 5.136741466283798463e-01 5.165396215707064309e-01 5.175953228652476756e-01 5.175953228652476756e-01 5.175953228652476756e-01 5.175953228652476756e-01 5.136741466283798463e-01 5.136741466283798463e-01 5.136741466283798463e-01 5.136741466283798463e-01 5.097529703915119059e-01 5.097529703915119059e-01 5.058317941546439656e-01 5.048483250539396172e-01 5.047760928601027208e-01 5.058317941546439656e-01 5.042482422128322650e-01 5.019106179177761362e-01 5.058317941546439656e-01 5.058317941546439656e-01 5.058167127075793301e-01 5.058317941546439656e-01 5.058317941546439656e-01 5.097529703915119059e-01 5.058317941546439656e-01 5.058317941546439656e-01 5.060818286717720937e-01 5.097529703915119059e-01 5.097529703915119059e-01
7.763929544985295195e-01 7.763929544985295195e-01 7.763929544985295195e-01 7.716946868576346485e-01 7.727599132766376222e-01 7.724717782616614681e-01 7.741307374387980111e-01 7.803141307353973488e-01 7.803141307353972378e-01 7.842353069722652892e-01 7.803141307353972378e-01 7.784051370411328996e-01 7.692729239631643789e-01 7.588302125112944552e-01 7.641174503480919755e-01 7.608217572842304044e-01 6.469941386818885976e-01 6.494270142215645691e-01 6.548364911556243673e-01 6.583472932802530986e-01 6.637147009146053822e-01 6.666000198662280773e-01 6.703029120008411335e-01 6.767045893996952444e-01 6.767045893996952444e-01 6.705211961030960177e-01 6.666000198662280773e-01 6.666000198662280773e-01 6.666000198662280773e-01 6.649410606890916453e-01 6.610198844522238160e-01 6.587576673924924187e-01 6.587576673924923076e-01 6.587576673924923076e-01 6.587576673924923076e-01 6.587576673924923076e-01 6.587576673924923076e-01 6.587576673924923076e-01 6.548364911556243673e-01 6.525742740958929700e-01 6.469941386818885976e-01 6.469941386818885976e-01 6.525306172754419265e-01 6.548364911556243673e-01 6.548364911556243673e-01 6.548364911556243673e-01 6.548364911556243673e-01 6.548364911556243673e-01 6.548364911556243673e-01 5.058317941546439656e-01 5.058317941546439656e-01 5.058317941546439656e-01 5.058317941546439656e-01 5.097529703915119059e-01 5.058317941546439656e-01 5.058317941546439656e-01 5.019106179177761362e-01 4.940682356446981505e-01 4.963304527044294923e-01 4.940682356446980950e-01 4.966892323924990693e-01 5.019106179177761362e-01 5.099315664751749022e-01 5.172373369375498076e-01 5.175953228652476756e-01 5.136741466283798463e-01 5.136741466283798463e-01 5.175953228652476756e-01 5.175953228652476756e-01 5.175953228652476756e-01 5.136741466283798463e-01 5.136741466283798463e-01 5.175953228652476756e-01 5.136741466283798463e-01 5.136741466283798463e-01 5.097529703915119059e-01 5.097529703915119059e-01 5.097529703915119059e-01 5.083289642844390777e-01 5.058317941546439656e-01 5.058317941546439656e-01 5.097529703915119059e-01 5.097529703915119059e-01 5.058317941546439656e-01 5.058317941546439656e-01 5.030718893417716053e-01 5.035608457308224928e-01 5.030893520699517563e-01 5.058317941546439656e-01 5.058317941546439656e-01 5.058317941546439656e-01 5.058317941546439656e-01 5.058317941546439656e-01 5.058317941546439656e-01 5.058317941546439656e-01
7.763929544985295195e-01 7.763929544985295195e-01 7.729480344847631246e-01 7.724717782616614681e-01 7.763143722217178411e-01 7.733441209103092406e-01 7.724717782616614681e-01 7.724717782616614681e-01 7.763905732174140040e-01 7.788210674759740160e-01 7.803141307353972378e-01 7.763929544985295195e-01 7.724717782616614681e-01 7.607082495510578690e-01 7.646294257879256984e-01 7.646603824424272888e-01 6.548364911556243673e-01 6.548364911556243673e-01 6.548364911556243673e-01 6.551770143551418624e-01 6.626788436293602480e-01 6.626788436293602480e-01 6.592736116341857411e-01 6.587576673924923076e-01 6.573376300872786349e-01 6.548364911556243673e-01 6.548364911556243673e-01 6.587576673924923076e-01 6.587576673924923076e-01 6.548364911556243673e-01 6.543840477436779768e-01 6.548364911556243673e-01 6.548364911556243673e-01 6.548364911556243673e-01 6.548364911556243673e-01 6.587576673924923076e-01 6.626788436293602480e-01 6.626788436293602480e-01 6.626788436293602480e-01 6.597030359953489631e-01 6.548364911556243673e-01 6.548364911556243673e-01 6.548364911556243673e-01 6.548364911556243673e-01 6.548364911556243673e-01 6.548364911556243673e-01 6.548364911556243673e-01 6.548364911556243673e-01 6.548364911556243673e-01 5.058317941546439656e-01 5.058317941546439656e-01 5.058317941546439656e-01 5.097529703915119059e-01 5.097529703915119059e-01 5.080400355090910480e-01 5.019106179177761362e-01 4.976060256219693168e-01 4.916988609347690553e-01 4.900303766331703947e-01 4.901470594078302101e-01 4.940682356446981505e-01 4.979894118815659798e-01 5.058317941546439656e-01 5.136741466283798463e-01 5.136741466283798463e-01 5.136741466283798463e-01 5.136289022871851628e-01 5.136741466283798463e-01 5.136741466283798463e-01 5.136741466283798463e-01 5.136741466283798463e-01 6.604293267355778596e-01 6.661475764542816869e-01 6.626788436293602480e-01 5.269458200454750774e-01 5.097529703915119059e-01 5.093219585096051549e-01 5.058317941546439656e-01 5.041196530325946501e-01 5.019106179177761362e-01 5.014581710674440584e-01 5.014581710674440584e-01 5.008191891121509531e-01 4.979894118815659798e-01 4.979894118815659798e-01 4.990300396373292258e-01 5.019288744063281626e-01 5.058317941546439656e-01 5.058317941546439656e-01 5.058317941546439656e-01 5.058317941546439656e-01 5.058317941546439656e-01 5.058317941546439656e-01 5.058317941546439656e-01 5.058317941546439656e-01
7.763929544985295195e-01 7.724717782616614681e-01 7.685506020247936387e-01 7.685506020247936387e-01 7.693046743780374008e-01 7.685506020247936387e-01 7.724717782616614681e-01 7.724717782616614681e-01 7.724678094598022016e-01 7.724717782616614681e-01 7.763929544985295195e-01 7.763929544985295195e-01 7.724717782616614681e-01 7.607082495510578690e-01 7.685506020247936387e-01 7.724717782616614681e-01 6.548364911556243673e-01 6.548364911556243673e-01 6.587576673924923076e-01 6.587576673924923076e-01 6.587576673924923076e-01 6.626788436293602480e-01 6.587576673924923076e-01 6.548364911556243673e-01 6.509153149187565379e-01 7.607082495510578690e-01 7.646294257879256984e-01 7.685506020247936387e-01 6.548364911556243673e-01 6.516789123964625841e-01 6.509153149187565379e-01 6.509153149187565379e-01 6.548364911556243673e-01 6.509153149187565379e-01 6.509153149187565379e-01 6.517860700466598933e-01 6.548364911556243673e-01 6.555905635088681294e-01 6.587576673924921966e-01 6.587576673924923076e-01 6.608952640738459117e-01 6.571534776810127321e-01 6.579202502002056141e-01 6.558532981919461546e-01 6.548364911556243673e-01 6.548364911556243673e-01 6.548364911556243673e-01 6.548364911556243673e-01 6.548364911556243673e-01 6.540824188023806052e-01 5.058317941546439656e-01 5.058317941546439656e-01 5.097529703915119059e-01 5.097529703915119059e-01 5.058317941546439656e-01 5.058317941546439656e-01 4.979894118815659798e-01 4.901470594078302101e-01 4.862258831709622697e-01 4.901470594078302101e-01 4.938182011275699113e-01 4.979894118815659798e-01 5.058317941546439656e-01 5.136741466283798463e-01 5.136741466283798463e-01 6.301029179692287929e-01 5.097529703915119059e-01 5.580136009991241153e-01 6.587576673924923076e-01 6.587576673924923076e-01 6.587576673924923076e-01 6.587576673924923076e-01 6.626788436293602480e-01 6.587576673924923076e-01 6.548364911556243673e-01 6.477482110351350242e-01 5.019106179177761362e-01 5.014145139152192954e-01 4.979894118815659798e-01 4.979894118815659798e-01 4.940682356446980950e-01 4.905399707918888241e-01 4.901470594078302101e-01 4.901470594078302101e-01 4.901470594078302101e-01 4.940682356446980950e-01 4.980100498080720639e-01 5.086178930597865522e-01 5.097529703915119059e-01 5.097529703915119059e-01 5.097529703915119059e-01 5.089988980382680328e-01 5.058317941546439656e-01 5.058317941546439656e-01 5.058317941546439656e-01
7.789314001676601595e-01 7.685506020247936387e-01 7.759286046810055515e-01 7.724717782616614681e-01 7.705111901432277755e-01 7.722344439104824598e-01 7.724717782616614681e-01 7.724717782616614681e-01 7.724717782616614681e-01 7.724717782616614681e-01 7.763929544985295195e-01 7.763929544985295195e-01 7.724717782616614681e-01 7.586651103539532315e-01 7.685506020247936387e-01 7.688188930304743485e-01 7.724717782616614681e-01 6.587576673924923076e-01 6.587576673924923076e-01 6.587576673924923076e-01 6.587576673924923076e-01 6.584377819626426875e-01 6.548364911556243673e-01 6.835333098785946193e-01 7.607082495510578690e-01 7.626378810149898602e-01 7.646294257879256984e-01 7.685506020247936387e-01 7.685506020247936387e-01 7.646294257879256984e-01 6.509153149187565379e-01 6.548364911556243673e-01 6.548364911556243673e-01 6.509153149187565379e-01 6.509153149187565379e-01 6.548364911556243673e-01 6.548364911556243673e-01 6.517924201296347864e-01 6.548364911556243673e-01 6.548364911556243673e-01 6.587576673924923076e-01 6.626788436293602480e-01 6.626788436293602480e-01 6.626788436293602480e-01 6.607182555109263333e-01 6.587576673924923076e-01 6.587576673924923076e-01 6.548364911556243673e-01 6.548364911556243673e-01 6.548364911556243673e-01 5.097529703915119059e-01 5.097529703915119059e-01 5.097529703915119059e-01 5.097529703915119059e-01 5.097529703915119059e-01 5.097529703915119059e-01 5.080916299332601804e-01 5.744523782998365302e-01 5.705311871632974263e-01 5.705311871632974263e-01 5.019106179177761362e-01 5.065644349778481992e-01 6.548364911556243673e-01 6.548364911556243673e-01 6.567970792740582819e-01 6.548364911556243673e-01 6.587576673924923076e-01 6.587576673924923076e-01 6.548364911556243673e-01 6.548364911556243673e-01 6.587576673924923076e-01 6.587576673924923076e-01 6.587576673924923076e-01 6.587576673924923076e-01 6.548364911556243673e-01 6.509153149187565379e-01 6.548364911556243673e-01 6.548364911556243673e-01 5.077923822730781023e-01 5.058317941546439656e-01 5.058317941546439656e-01 5.038712060362101619e-01 5.019106179177761362e-01 5.019106179177761362e-01 5.011160577472808519e-01 5.019106179177761362e-01 5.058317941546439656e-01 5.058317941546439656e-01 5.097529703915119059e-01 5.097529703915119059e-01 5.097529703915119059e-01 5.097529703915119059e-01 5.058317941546439656e-01 5.058317941546439656e-01 5.077923822730778802e-01
7.763929544985295195e-01 7.763929544985295195e-01 7.763929544985295195e-01 7.763929544985295195e-01 7.771470268517735036e-01 7.803141307353972378e-01 7.803141307353972378e-01 7.763929544985295195e-01 7.763929544985295195e-01 7.758651038512587306e-01 7.763929544985295195e-01 7.763929544985295195e-01 7.724717782616614681e-01 7.669003742117477262e-01 7.575038389299570962e-01 7.646294257879256984e-01 7.685506020247936387e-01 7.371295977056908644e-01 6.587576673924923076e-01 6.587576673924923076e-01 6.548364911556243673e-01 6.582814111693902070e-01 7.646294257879258094e-01 7.611408489537083710e-01 7.646294257879256984e-01 7.646294257879256984e-01 7.646294257879256984e-01 7.638753534346817142e-01 7.607082495510578690e-01 7.607082495510578690e-01 7.646294257879256984e-01 6.727834131628325220e-01 6.509153149187565379e-01 6.469941386818885976e-01 6.482943181709551750e-01 6.548364911556243673e-01 6.548364911556243673e-01 6.509153149187565379e-01 6.548364911556243673e-01 6.548364911556243673e-01 6.548364911556243673e-01 6.580035950392482125e-01 6.548364911556243673e-01 6.585155704790822684e-01 6.619247712761162639e-01 6.666000198662280773e-01 6.673540922194720615e-01 6.610952916875486585e-01 6.555905635088684624e-01 6.548364911556243673e-01 5.097529703915119059e-01 5.097529703915119059e-01 5.097529703915119059e-01 5.097529703915119059e-01 5.136741466283798463e-01 6.595117397457362918e-01 6.626788436293602480e-01 6.595117397457362918e-01 6.587576673924923076e-01 6.587576673924923076e-01 6.587576673924923076e-01 6.587576673924923076e-01 6.548364911556243673e-01 6.548364911556243673e-01 6.548364911556243673e-01 6.587576673924923076e-01 6.587576673924923076e-01 6.587576673924923076e-01 6.548364911556243673e-01 6.548364911556243673e-01 6.587576673924923076e-01 6.548364911556243673e-01 6.548364911556243673e-01 6.548364911556243673e-01 6.523655151181002587e-01 6.548364911556243673e-01 6.587576673924924187e-01 6.626788436293602480e-01 6.626788436293602480e-01 5.136741466283798463e-01 5.175953228652476756e-01 5.140670580124385713e-01 5.136741466283798463e-01 5.136741466283798463e-01 5.097529703915119059e-01 5.097529703915119059e-01 5.097529703915119059e-01 5.097529703915119059e-01 5.058317941546439656e-01 5.097529703915119059e-01 5.097529703915119059e-01 5.076685556550716294e-01 5.058317941546439656e-01 5.058317941546439656e-01 5.097529703915119059e-01
7.724717782616614681e-01 7.763929544985295195e-01 7.802069730851993734e-01 7.803141307353972378e-01 7.838614458371306881e-01 7.842353069722652892e-01 8.369235329339618223e-01 8.822647128939626882e-01 8.822647128939626882e-01 7.735123981091384104e-01 7.724717782616614681e-01 7.763929544985295195e-01 7.763929544985295195e-01 7.761762579170183862e-01 7.633919533682343994e-01 7.532873838347665663e-01 7.646294257879258094e-01 7.646294257879258094e-01 7.679290876536476462e-01 6.552889345675705357e-01 7.685506020247936387e-01 7.680981586128474703e-01 7.646294257879258094e-01 7.646294257879258094e-01 7.607082495510579800e-01 7.572942861917930646e-01 7.533183404892681567e-01 7.533183404892681567e-01 7.528658970773219883e-01 7.533183404892681567e-01 7.550892198788331511e-01 7.567870733141899287e-01 7.533183404892681567e-01 6.391517862081527168e-01 6.393018069184295271e-01 6.469941386818885976e-01 6.509153149187565379e-01 6.530822807338678704e-01 6.548364911556243673e-01 6.548364911556243673e-01 6.548364911556243673e-01 6.548364911556243673e-01 6.548364911556243673e-01 6.548364911556243673e-01 6.548364911556243673e-01 6.587576673924921966e-01 6.619668405758234453e-01 6.705211961030960177e-01 6.587576673924921966e-01 6.548364911556243673e-01 6.548364911556243673e-01 5.097529703915119059e-01 5.097529703915119059e-01 6.626788436293602480e-01 6.666000198662280773e-01 6.700687526911498493e-01 6.705211961030960177e-01 6.705211961030960177e-01 6.705211961030960177e-01 6.700854216589583467e-01 6.664499991559511560e-01 6.612135619829521138e-01 6.548364911556243673e-01 6.548364911556243673e-01 6.587576673924921966e-01 6.587576673924921966e-01 6.587576673924921966e-01 6.563843238807041125e-01 6.548364911556243673e-01 6.583123678238925747e-01 6.587576673924921966e-01 6.548364911556243673e-01 6.548364911556243673e-01 6.548364911556243673e-01 6.509153149187565379e-01 6.510272351311853223e-01 6.548364911556243673e-01 6.614921718734658729e-01 6.587576673924921966e-01 6.626788436293602480e-01 5.474264251595900577e-01 5.175953228652476756e-01 5.175953228652476756e-01 5.175953228652476756e-01 5.152632548927947864e-01 5.136741466283798463e-01 5.136741466283798463e-01 5.107570772618843513e-01 5.081225865877616599e-01 5.097529703915119059e-01 5.097529703915119059e-01 5.076685556550716294e-01 5.058317941546439656e-01 5.058317941546439656e-01 5.097529703915119059e-01
7.771906836722239920e-01 7.803141307353972378e-01 7.803141307353972378e-01 7.833534391991556767e-01 7.842353069722652892e-01 7.842353069722652892e-01 8.861858891308307395e-01 8.822647128939626882e-01 8.822647128939626882e-01 8.822647128939626882e-01 8.822647128939626882e-01 7.788385302041548330e-01 7.803141307353972378e-01 7.803141307353972378e-01 7.724717782616614681e-01 7.629704666107893773e-01 7.601057854288344462e-01 7.685506020247936387e-01 7.685506020247936387e-01 7.646294257879255873e-01 7.646294257879256984e-01 7.685506020247936387e-01 7.685506020247936387e-01 7.646294257879256984e-01 7.567870733141898176e-01 7.489447208404540479e-01 7.450235446035862186e-01 7.450235446035862186e-01 7.450235446035862186e-01 7.450235446035862186e-01 7.450235446035862186e-01 7.450235446035862186e-01 7.450235446035862186e-01 6.525234734321012642e-01 6.313094337344169471e-01 6.391517862081527168e-01 6.486729418683208070e-01 6.526695253405130348e-01 6.548364911556243673e-01 6.548364911556243673e-01 6.548364911556243673e-01 6.548364911556243673e-01 6.548364911556243673e-01 6.548364911556243673e-01 6.548364911556243673e-01 6.548364911556243673e-01 6.548364911556243673e-01 6.626788436293602480e-01 6.626788436293602480e-01 6.548364911556243673e-01 6.548364911556243673e-01 6.548364911556243673e-01 6.626788436293602480e-01 6.705211961030960177e-01 6.822847248136997278e-01 6.800225077539681084e-01 6.725254410419809759e-01 6.705211961030960177e-01 6.705211961030960177e-01 6.760402119684687516e-01 6.705211961030960177e-01 6.659800930158246146e-01 6.587576673924923076e-01 6.587576673924923076e-01 6.587576673924923076e-01 6.587576673924923076e-01 6.587576673924923076e-01 6.577535605221204174e-01 6.555389690846986639e-01 6.610460785444942644e-01 6.626788436293602480e-01 6.548364911556243673e-01 6.548364911556243673e-01 6.548364911556243673e-01 6.509153149187565379e-01 6.509153149187565379e-01 6.548364911556243673e-01 6.548364911556243673e-01 6.548364911556243673e-01 6.587576673924921966e-01 6.626788436293602480e-01 5.175953228652476756e-01 5.175953228652476756e-01 5.175953228652476756e-01 5.136741466283798463e-01 5.136741466283798463e-01 5.097529703915119059e-01 5.130192943216151935e-01 5.129843688652547806e-01 5.077646006600634587e-01 5.097529703915119059e-01 5.097529703915119059e-01 5.058317941546439656e-01 5.058317941546439656e-01 5.058317941546439656e-01
7.828525764045279889e-01 7.803141307353972378e-01 7.835566418543455924e-01 7.842353069722652892e-01 7.842353069722652892e-01 8.771671837860273158e-01 8.822647128939626882e-01 8.822647128939626882e-01 8.822647128939626882e-01 8.822647128939626882e-01 8.844816856124995130e-01 8.832037314138445616e-01 8.822647128939626882e-01 8.822647128939626882e-01 7.763929544985295195e-01 7.724717782616614681e-01 7.628045706930761671e-01 7.685506020247936387e-01 7.685506020247936387e-01 7.646294257879255873e-01 7.646294257879255873e-01 7.685506020247936387e-01 7.685506020247936387e-01 7.685506020247936387e-01 7.607082495510577580e-01 7.567870733141898176e-01 7.535937753382953019e-01 7.528658970773219883e-01 7.489447208404540479e-01 7.450235446035862186e-01 7.445068066015210206e-01 7.452513538303029428e-01 7.489447208404540479e-01 7.500004221349956257e-01 6.402074875026942946e-01 6.470330329401084990e-01 6.548364911556243673e-01 6.548364911556243673e-01 6.548364911556243673e-01 6.548364911556243673e-01 6.548364911556243673e-01 6.548364911556243673e-01 6.548364911556243673e-01 6.548364911556243673e-01 6.587576673924923076e-01 6.548364911556243673e-01 6.548364911556243673e-01 6.548364911556243673e-01 6.688773183730243321e-01 6.551873332399759109e-01 6.548364911556243673e-01 6.587576673924923076e-01 6.705211961030960177e-01 6.851533747975132593e-01 6.779023738007953215e-01 6.705211961030960177e-01 6.694654948085544399e-01 6.666000198662280773e-01 6.666000198662280773e-01 6.705211961030960177e-01 6.744423723399638471e-01 6.744423723399638471e-01 6.702949743971229335e-01 6.643528842535618706e-01 6.626788436293602480e-01 6.626788436293602480e-01 6.587576673924923076e-01 6.626788436293602480e-01 6.626788436293602480e-01 6.666000198662280773e-01 6.666000198662280773e-01 6.614572464171055710e-01 6.562692286267876041e-01 6.548364911556243673e-01 6.548364911556243673e-01 6.548364911556243673e-01 6.548364911556243673e-01 6.548364911556243673e-01 6.548364911556243673e-01 6.548364911556243673e-01 6.617914195336475069e-01 6.666000198662280773e-01 5.175953228652476756e-01 5.136741466283798463e-01 5.136741466283798463e-01 5.097529703915119059e-01 5.097529703915119059e-01 5.097529703915119059e-01 5.097529703915119059e-01 5.097529703915119059e-01 5.095696117456177676e-01 5.097529703915119059e-01 5.088242707564644141e-01 5.058317941546439656e-01 5.019106179177761362e-01
7.842353069722651782e-01 7.842353069722652892e-01 7.842353069722652892e-01 7.842353069722652892e-01 7.842353069722652892e-01 8.694669144188458265e-01 8.822647128939626882e-01 8.822647128939626882e-01 8.822647128939626882e-01 8.849039661303158555e-01 8.861858891308307395e-01 8.822647128939626882e-01 8.822647128939626882e-01 8.783435366570948588e-01 8.783435366570948588e-01 7.724717782616614681e-01 7.724717782616614681e-01 7.646294257879256984e-01 7.688800125791048767e-01 7.685506020247936387e-01 7.646294257879256984e-01 7.685506020247936387e-01 7.685506020247936387e-01 7.685506020247936387e-01 7.685085327250864573e-01 7.646294257879256984e-01 7.607082495510579800e-01 7.567870733141898176e-01 7.524737794536354718e-01 7.450235446035862186e-01 7.487939063698054731e-01 7.527476267819186440e-01 7.567870733141897066e-01 7.607082495510578690e-01 7.645286182207026160e-01 6.548364911556243673e-01 6.548364911556243673e-01 6.548364911556243673e-01 6.548364911556243673e-01 6.548364911556243673e-01 6.548364911556243673e-01 7.685506020247936387e-01 7.685506020247936387e-01 6.899405436000671799e-01 6.548364911556243673e-01 6.548364911556243673e-01 6.509153149187565379e-01 6.509907221540807143e-01 6.587886240469937871e-01 6.587576673924923076e-01 6.587576673924923076e-01 6.666000198662280773e-01 6.783635485768317874e-01 6.716840550478353489e-01 6.666849522260143157e-01 6.626788436293602480e-01 6.628066390492255433e-01 6.649132790760771128e-01 6.666000198662280773e-01 6.666000198662280773e-01 6.705211961030960177e-01 6.667508343368766521e-01 6.626788436293602480e-01 6.587902115677375381e-01 6.589084818631408824e-01 6.626788436293602480e-01 6.626788436293602480e-01 6.626788436293602480e-01 6.549873056262729420e-01 6.589680138910282148e-01 6.628296581000088228e-01 6.666865397467580667e-01 6.659531051631827347e-01 6.587576673924923076e-01 6.548364911556243673e-01 6.548364911556243673e-01 6.548364911556243673e-01 6.548364911556243673e-01 6.548364911556243673e-01 6.548364911556243673e-01 6.587576673924923076e-01 6.626788436293602480e-01 5.136741466283798463e-01 5.136741466283798463e-01 5.136741466283798463e-01 5.136741466283798463e-01 5.097529703915119059e-01 5.097529703915119059e-01 5.097529703915119059e-01 5.097529703915119059e-01 5.058317941546439656e-01 5.097529703915119059e-01 5.058317941546439656e-01 5.058317941546439656e-01 5.019637998626890196e-01
7.842353069722651782e-01 7.842353069722654002e-01 7.842353069722654002e-01 7.803141307353971268e-01 7.803141307353971268e-01 7.763929544985295195e-01 8.822647128939626882e-01 8.822647128939626882e-01 8.861858891308307395e-01 8.826719119647145062e-01 8.822647128939626882e-01 8.822647128939626882e-01 8.822647128939626882e-01 8.783435366570948588e-01 8.783435366570948588e-01 8.442031093040800460e-01 7.724717782616614681e-01 7.685506020247936387e-01 7.646294257879256984e-01 7.620655797868964854e-01 7.646294257879256984e-01 7.667749600729976134e-01 7.685506020247936387e-01 7.685506020247936387e-01 7.646294257879256984e-01 7.607082495510578690e-01 7.607082495510579800e-01 7.607082495510578690e-01 7.567870733141899287e-01 7.533651723512068132e-01 7.567870733141898176e-01 7.607082495510578690e-01 7.645222681377278340e-01 7.662352030201490249e-01 7.646294257879255873e-01 7.659867560237644257e-01 7.646294257879256984e-01 7.659867560237644257e-01 7.685506020247936387e-01 7.685506020247936387e-01 7.685506020247936387e-01 7.685506020247936387e-01 7.685506020247936387e-01 7.646294257879256984e-01 7.646294257879256984e-01 6.509153149187565379e-01 6.488777320442545848e-01 6.489547268003221792e-01 6.548364911556243673e-01 6.599935522914400776e-01 6.626788436293602480e-01 6.626788436293602480e-01 6.626788436293602480e-01 6.626788436293602480e-01 6.587576673924923076e-01 6.587576673924923076e-01 6.593561627128565750e-01 6.626788436293602480e-01 6.626788436293602480e-01 6.626788436293602480e-01 6.626788436293602480e-01 6.587576673924923076e-01 6.560866637412653413e-01 6.548364911556243673e-01 6.548364911556243673e-01 6.587576673924923076e-01 6.587576673924923076e-01 6.587576673924923076e-01 6.548364911556243673e-01 6.548364911556243673e-01 6.548364911556243673e-01 6.548364911556243673e-01 6.587576673924923076e-01 6.666000198662280773e-01 6.626788436293602480e-01 6.587576673924923076e-01 6.587576673924924187e-01 6.548364911556243673e-01 6.548364911556243673e-01 6.548364911556243673e-01 6.587576673924923076e-01 6.626788436293602480e-01 5.141464340496219032e-01 5.175953228652476756e-01 5.175953228652476756e-01 5.175953228652476756e-01 5.162244987030879528e-01 5.136741466283798463e-01 5.136741466283798463e-01 5.136741466283798463e-01 5.097529703915119059e-01 5.058317941546439656e-01 5.058317941546439656e-01 5.058317941546439656e-01 5.058317941546439656e-01
7.803141307353971268e-01 7.842353069722654002e-01 7.842353069722654002e-01 7.784773692349702401e-01 7.803141307353971268e-01 8.113326985459923257e-01 8.822647128939626882e-01 8.822647128939626882e-01 8.861858891308307395e-01 8.822647128939626882e-01 8.822647128939626882e-01 8.822647128939626882e-01 8.822647128939626882e-01 8.822647128939626882e-01 8.783435366570948588e-01 8.783435366570948588e-01 7.823525073702781718e-01 7.646294257879256984e-01 7.646294257879256984e-01 7.646294257879255873e-01 7.646294257879256984e-01 7.618441206431549872e-01 7.607082495510577580e-01 7.582579112832008583e-01 7.607082495510578690e-01 7.659653244937252303e-01 7.646294257879256984e-01 7.620655797868970405e-01 7.607082495510578690e-01 7.607082495510578690e-01 7.607082495510578690e-01 7.607082495510578690e-01 7.646294257879256984e-01 7.685506020247936387e-01 7.646294257879255873e-01 7.646294257879256984e-01 7.607082495510578690e-01 7.624624599728143659e-01 7.646294257879256984e-01 7.685506020247936387e-01 7.685506020247936387e-01 7.685506020247936387e-01 7.685506020247936387e-01 7.685506020247936387e-01 7.675655454033457614e-01 7.646294257879256984e-01 6.469941386818885976e-01 6.509153149187565379e-01 6.548364911556243673e-01 6.548364911556243673e-01 6.548364911556243673e-01 6.587576673924923076e-01 6.548364911556243673e-01 6.577051411394380098e-01 6.587576673924923076e-01 6.626788436293602480e-01 6.626788436293602480e-01 6.587576673924923076e-01 6.587576673924923076e-01 6.587576673924923076e-01 6.548364911556243673e-01 6.548364911556243673e-01 6.548364911556243673e-01 6.548364911556243673e-01 6.548364911556243673e-01 6.548364911556243673e-01 6.548364911556243673e-01 6.509153149187565379e-01 6.456368084460494261e-01 6.430729624450206572e-01 6.430729624450206572e-01 6.469941386818885976e-01 6.536577570034480811e-01 6.587576673924923076e-01 6.626788436293602480e-01 6.633130581664565817e-01 6.626788436293602480e-01 6.548364911556243673e-01 6.548364911556243673e-01 6.587576673924921966e-01 6.626788436293602480e-01 6.652641211604288785e-01 5.175953228652476756e-01 5.175953228652476756e-01 5.175953228652476756e-01 5.175953228652476756e-01 5.162244987030875087e-01 5.136741466283798463e-01 5.136741466283798463e-01 5.136741466283798463e-01 5.097529703915119059e-01 5.058317941546439656e-01 5.058317941546439656e-01 5.058317941546439656e-01 5.058317941546439656e-01
7.763929544985295195e-01 7.803141307353972378e-01 7.803141307353972378e-01 7.763929544985295195e-01 7.763929544985295195e-01 8.822647128939626882e-01 8.860977817295568881e-01 8.822647128939626882e-01 8.861858891308307395e-01 8.861858891308307395e-01 8.822647128939626882e-01 8.822647128939626882e-01 8.861858891308307395e-01 8.822647128939626882e-01 8.822647128939626882e-01 8.822647128939626882e-01 8.783435366570948588e-01 8.370164028974863557e-01 7.567870733141898176e-01 7.567497665767134452e-01 7.607082495510578690e-01 7.638634470291044698e-01 7.567870733141898176e-01 7.569378877848388365e-01 7.647802402585747172e-01 7.687609485233306561e-01 7.685506020247936387e-01 7.647802402585747172e-01 7.646294257879256984e-01 7.646294257879256984e-01 7.607082495510578690e-01 7.567870733141899287e-01 7.641809511778381303e-01 7.646294257879256984e-01 7.646294257879255873e-01 7.646294257879256984e-01 7.646294257879256984e-01 7.646294257879256984e-01 7.647802402585747172e-01 7.684212190841842594e-01 7.646294257879256984e-01 7.644786113172766795e-01 7.683997875541446199e-01 7.724233588789793936e-01 7.685506020247936387e-01 7.646294257879256984e-01 6.509153149187565379e-01 6.548364911556243673e-01 6.548364911556243673e-01 6.548364911556243673e-01 6.587576673924923076e-01 6.587576673924923076e-01 6.587576673924923076e-01 6.588680000841776740e-01 6.666000198662280773e-01 7.803141307353972378e-01 6.843397704163943773e-01 6.626788436293602480e-01 6.587576673924923076e-01 6.587576673924923076e-01 6.548364911556243673e-01 6.548364911556243673e-01 6.548364911556243673e-01 6.549873056262733861e-01 6.568383548133940320e-01 6.548364911556243673e-01 6.509153149187565379e-01 6.469941386818885976e-01 6.432237769156696761e-01 6.430729624450206572e-01 6.430729624450206572e-01 6.470584332720074050e-01 6.548364911556243673e-01 6.587576673924923076e-01 6.626788436293602480e-01 6.587576673924923076e-01 6.623494330750477888e-01 6.548364911556243673e-01 6.548364911556243673e-01 6.587576673924921966e-01 6.626788436293602480e-01 6.626788436293602480e-01 6.664492053955790585e-01 6.626788436293602480e-01 6.626788436293602480e-01 6.587576673924923076e-01 5.097529703915119059e-01 5.097529703915119059e-01 5.136741466283798463e-01 5.097529703915119059e-01 5.058317941546439656e-01 5.019106179177761362e-01 5.019106179177761362e-01 5.019106179177761362e-01 5.058317941546439656e-01
7.763929544985295195e-01 7.803141307353972378e-01 7.803141307353972378e-01 7.803141307353972378e-01 8.827624006471033180e-01 8.861858891308307395e-01 8.822647128939626882e-01 8.822647128939626882e-01 8.833148578659010264e-01 8.861858891308307395e-01 8.822647128939626882e-01 8.822647128939626882e-01 8.822647128939626882e-01 8.822647128939626882e-01 8.822647128939626882e-01 8.822647128939626882e-01 8.822647128939626882e-01 8.779823756879098218e-01 8.732309261021022895e-01 7.567870733141898176e-01 7.625037355121495608e-01 7.646294257879255873e-01 7.567870733141898176e-01 7.641793636570948234e-01 7.696444038171827984e-01 7.724717782616614681e-01 7.717439000006884875e-01 7.714160769671203344e-01 7.714160769671203344e-01 7.685506020247936387e-01 7.646294257879255873e-01 7.646294257879258094e-01 7.646294257879255873e-01 7.635737244933844536e-01 7.607082495510577580e-01 7.607082495510577580e-01 7.607082495510577580e-01 7.617639508455988917e-01 7.607082495510577580e-01 7.578427746087310624e-01 7.557313720196486839e-01 7.528658970773219883e-01 7.578427746087310624e-01 7.676306337538357782e-01 7.685506020247936387e-01 7.646294257879255873e-01 7.646294257879255873e-01 6.548364911556243673e-01 6.548364911556243673e-01 6.548364911556243673e-01 6.548364911556243673e-01 6.587576673924923076e-01 6.587576673924923076e-01 6.587576673924923076e-01 7.803141307353972378e-01 7.842353069722652892e-01 7.803141307353971268e-01 7.594739521728595122e-01 7.418564407199680355e-01 7.429843742083471758e-01 7.379352644831002062e-01 7.390060472247061973e-01 6.548364911556243673e-01 6.548364911556243673e-01 6.548364911556243673e-01 6.548364911556243673e-01 6.537807898610832336e-01 6.509153149187565379e-01 6.509153149187565379e-01 6.509153149187565379e-01 6.509153149187565379e-01 6.548364911556243673e-01 6.587576673924923076e-01 6.598133686870334413e-01 6.572042783448099890e-01 6.548364911556243673e-01 6.614874093112348419e-01 6.548364911556243673e-01 6.548364911556243673e-01 6.616953745286560107e-01 6.626788436293602480e-01 6.626788436293602480e-01 6.596188973959340451e-01 6.587576673924923076e-01 6.587576673924923076e-01 6.548364911556243673e-01 6.548364911556243673e-01 5.097529703915119059e-01 5.097529703915119059e-01 5.067597000293196929e-01 5.019106179177761362e-01 4.979894118815659798e-01 5.011049450176237041e-01 5.058317941546439656e-01 5.097529703915119059e-01
7.803141307353972378e-01 7.803141307353972378e-01 7.803141307353972378e-01 8.822647128939626882e-01 8.826576242780210801e-01 8.825385602222461934e-01 8.822647128939626882e-01 8.822647128939626882e-01 8.822647128939626882e-01 8.822647128939626882e-01 8.822647128939626882e-01 8.822647128939626882e-01 8.806057537168261451e-01 8.822647128939626882e-01 8.822647128939626882e-01 8.822647128939626882e-01 8.822647128939626882e-01 8.822647128939626882e-01 8.783435366570948588e-01 8.756709454851243635e-01 7.712454184871753160e-01 7.681815034518901797e-01 7.607082495510577580e-01 7.646294257879256984e-01 7.685506020247936387e-01 7.685506020247936387e-01 7.701103411554502953e-01 7.724717782616614681e-01 7.724717782616614681e-01 7.685506020247936387e-01 7.685506020247936387e-01 7.685506020247936387e-01 7.685506020247936387e-01 7.685506020247936387e-01 7.646294257879255873e-01 7.646294257879256984e-01 7.646294257879256984e-01 7.668916428476570957e-01 7.671448524062725038e-01 7.685506020247936387e-01 7.607082495510578690e-01 7.567870733141898176e-01 7.606487175231699815e-01 7.567870733141899287e-01 7.636078561893732131e-01 7.646294257879256984e-01 7.646294257879256984e-01 7.685506020247936387e-01 6.548364911556243673e-01 6.548364911556243673e-01 6.548364911556243673e-01 6.548364911556243673e-01 7.012873481154484612e-01 7.685506020247936387e-01 7.763929544985295195e-01 7.803141307353972378e-01 7.763929544985295195e-01 7.724717782616614681e-01 7.724717782616614681e-01 7.724717782616614681e-01 7.685506020247936387e-01 7.685506020247936387e-01 7.668916428476570957e-01 6.648600971311673380e-01 6.548364911556243673e-01 6.548364911556243673e-01 6.548364911556243673e-01 6.548364911556243673e-01 6.548364911556243673e-01 6.548364911556243673e-01 6.548364911556243673e-01 6.548364911556243673e-01 6.548364911556243673e-01 6.548364911556243673e-01 6.548364911556243673e-01 6.548364911556243673e-01 6.589434073195022945e-01 6.548364911556243673e-01 6.548364911556243673e-01 6.626788436293602480e-01 6.666000198662280773e-01 6.666000198662280773e-01 6.626788436293602480e-01 6.587576673924923076e-01 6.548364911556243673e-01 6.548364911556243673e-01 6.548364911556243673e-01 5.058317941546439656e-01 5.058317941546439656e-01 5.058317941546439656e-01 4.979894118815659798e-01 4.940682356446980950e-01 5.001841759888779881e-01 5.058317941546439656e-01 5.058317941546439656e-01
7.803141307353971268e-01 7.803141307353972378e-01 7.803141307353972378e-01 8.822647128939626882e-01 8.822647128939626882e-01 8.822647128939626882e-01 8.799739204608456600e-01 8.783435366570948588e-01 8.783435366570948588e-01 8.822647128939626882e-01 8.783435366570948588e-01 8.783435366570948588e-01 8.783435366570948588e-01 8.822647128939626882e-01 8.822647128939626882e-01 8.822647128939626882e-01 8.822647128939626882e-01 8.822647128939626882e-01 8.783435366570948588e-01 8.744223604202270295e-01 7.763929544985295195e-01 7.718320074019622279e-01 7.646294257879258094e-01 7.646294257879258094e-01 7.646294257879258094e-01 7.646294257879258094e-01 7.685506020247936387e-01 7.685506020247936387e-01 7.685506020247936387e-01 7.685506020247936387e-01 7.685506020247936387e-01 7.685506020247936387e-01 7.685506020247936387e-01 7.685506020247936387e-01 7.646294257879255873e-01 7.646294257879258094e-01 7.646294257879258094e-01 7.685506020247936387e-01 7.685506020247936387e-01 7.685506020247936387e-01 7.624211844334796151e-01 7.607082495510579800e-01 7.645262369395868784e-01 7.622743387646899738e-01 7.541986207416336851e-01 7.646294257879258094e-01 7.646294257879258094e-01 7.685506020247936387e-01 7.685506020247936387e-01 7.685506020247936387e-01 7.685506020247936387e-01 7.685506020247936387e-01 7.646294257879258094e-01 7.674980757717393409e-01 7.724717782616614681e-01 7.724717782616614681e-01 7.724717782616614681e-01 7.707175678399045271e-01 7.724717782616614681e-01 7.685506020247936387e-01 7.685506020247936387e-01 7.670853203783856156e-01 7.646294257879258094e-01 7.646294257879258094e-01 6.548364911556243673e-01 6.548364911556243673e-01 6.548364911556243673e-01 6.548364911556243673e-01 6.548364911556243673e-01 6.547745778466216304e-01 6.509153149187565379e-01 6.548364911556243673e-01 6.548364911556243673e-01 6.548364911556243673e-01 6.548364911556243673e-01 6.600681657663928226e-01 6.587576673924924187e-01 6.548364911556243673e-01 6.548364911556243673e-01 6.626788436293602480e-01 6.666000198662280773e-01 5.175953228652476756e-01 5.136741466283798463e-01 6.587576673924923076e-01 6.548364911556243673e-01 6.548364911556243673e-01 6.509153149187565379e-01 5.058317941546439656e-01 5.058317941546439656e-01 5.053571254522865042e-01 4.984418587318982241e-01 4.982299231020057562e-01 5.023630613297227487e-01 5.058317941546439656e-01 5.058317941546439656e-01
7.803141307353971268e-01 7.803141307353972378e-01 7.803141307353972378e-01 8.822647128939626882e-01 8.822647128939626882e-01 8.822647128939626882e-01 8.822647128939626882e-01 8.783435366570948588e-01 8.783435366570948588e-01 8.783435366570948588e-01 8.783435366570948588e-01 8.744223604202270295e-01 8.744223604202270295e-01 8.783435366570948588e-01 8.822647128939626882e-01 8.783435366570948588e-01 8.783435366570948588e-01 8.783435366570948588e-01 8.744223604202270295e-01 8.744223604202270295e-01 8.822647128939626882e-01 7.718320074019622279e-01 7.646294257879258094e-01 7.607082495510578690e-01 7.607082495510578690e-01 7.646294257879256984e-01 7.685506020247936387e-01 7.653834981411693494e-01 7.646294257879256984e-01 7.646294257879256984e-01 7.646294257879256984e-01 7.647921466641520727e-01 7.685506020247936387e-01 7.646294257879256984e-01 7.646294257879255873e-01 7.646294257879256984e-01 7.646294257879256984e-01 7.685506020247936387e-01 7.685506020247936387e-01 7.685506020247936387e-01 7.646294257879256984e-01 7.646294257879256984e-01 7.677965296715500987e-01 7.656462328242474857e-01 7.567870733141898176e-01 7.567870733141898176e-01 7.613075386317935678e-01 7.646294257879256984e-01 7.685506020247936387e-01 7.685506020247936387e-01 7.685506020247936387e-01 7.646294257879256984e-01 7.646294257879256984e-01 7.685506020247936387e-01 7.724717782616614681e-01 7.724717782616614681e-01 7.724717782616614681e-01 7.724717782616614681e-01 7.724717782616614681e-01 7.685506020247936387e-01 7.659296052769926089e-01 7.646294257879256984e-01 7.646294257879256984e-01 7.646294257879258094e-01 7.685506020247936387e-01 6.548364911556243673e-01 6.548364911556243673e-01 6.548364911556243673e-01 6.548364911556243673e-01 6.509153149187565379e-01 6.509153149187565379e-01 6.509153149187565379e-01 6.516693872720000780e-01 6.548364911556243673e-01 6.604745710767727651e-01 6.666000198662280773e-01 6.587576673924924187e-01 6.548364911556243673e-01 6.548364911556243673e-01 6.548880855797936107e-01 6.626788436293602480e-01 5.136741466283798463e-01 5.136741466283798463e-01 5.097529703915119059e-01 6.548364911556243673e-01 6.548364911556243673e-01 5.058317941546439656e-01 5.058317941546439656e-01 5.058317941546439656e-01 5.058317941546439656e-01 5.058317941546439656e-01 5.058317941546439656e-01 5.089988980382683659e-01 5.058317941546439656e-01 5.058317941546439656e-01
7.763929544985295195e-01 7.763929544985295195e-01 7.803141307353972378e-01 7.803141307353972378e-01 7.980213371102953257e-01 8.822647128939626882e-01 8.822647128939626882e-01 8.822647128939626882e-01 8.822647128939626882e-01 8.822647128939626882e-01 8.744223604202270295e-01 8.705011841833592001e-01 8.724617723017928927e-01 8.744223604202270295e-01 8.783435366570948588e-01 8.783435366570948588e-01 8.783435366570948588e-01 8.783435366570948588e-01 8.783435366570948588e-01 8.783435366570948588e-01 8.822647128939626882e-01 8.783435366570948588e-01 7.609662216719045302e-01 7.559512436426466531e-01 7.567870733141898176e-01 7.567870733141898176e-01 7.587476614326236213e-01 7.567870733141898176e-01 7.587476614326236213e-01 7.587476614326236213e-01 8.446317399048639540e-01 8.705011841833592001e-01 8.220540198883830030e-01 7.607082495510578690e-01 7.646294257879255873e-01 7.646294257879256984e-01 8.195258931040825257e-01 8.744223604202270295e-01 8.783435366570948588e-01 8.783435366570948588e-01 8.783435366570948588e-01 8.744223604202270295e-01 7.685506020247936387e-01 7.632982896443574194e-01 7.567870733141898176e-01 7.528658970773219883e-01 7.583452249241031673e-01 7.607082495510578690e-01 7.626688376694918947e-01 7.646294257879256984e-01 7.607082495510578690e-01 7.607082495510577580e-01 7.646294257879256984e-01 7.685506020247936387e-01 7.724717782616614681e-01 7.744323663800952717e-01 7.724717782616614681e-01 7.724717782616614681e-01 7.724717782616614681e-01 7.685506020247936387e-01 7.646294257879255873e-01 7.646294257879256984e-01 7.646294257879256984e-01 7.646294257879258094e-01 7.675909457352446674e-01 6.548364911556243673e-01 6.548364911556243673e-01 6.548364911556243673e-01 6.548364911556243673e-01 6.509153149187565379e-01 6.509153149187565379e-01 6.469941386818885976e-01 6.509153149187565379e-01 6.548364911556243673e-01 6.626788436293602480e-01 6.602332679237347124e-01 6.587576673924924187e-01 6.587576673924923076e-01 6.548364911556243673e-01 6.548364911556243673e-01 6.548364911556243673e-01 5.136741466283798463e-01 5.097529703915119059e-01 5.062651873176665651e-01 6.548364911556243673e-01 5.058317941546439656e-01 5.058317941546439656e-01 5.058317941546439656e-01 5.097529703915119059e-01 5.097529703915119059e-01 5.058317941546439656e-01 5.058317941546439656e-01 5.058317941546439656e-01 5.058317941546439656e-01 5.058317941546439656e-01
7.724717782616614681e-01 7.763929544985295195e-01 7.763929544985295195e-01 7.803141307353972378e-01 7.803141307353972378e-01 7.803141307353972378e-01 7.803141307353972378e-01 8.822647128939626882e-01 8.822647128939626882e-01 8.822647128939626882e-01 8.744223604202270295e-01 8.705011841833592001e-01 8.705011841833592001e-01 8.740611994510415483e-01 8.744223604202270295e-01 8.783435366570948588e-01 8.783435366570948588e-01 8.783435366570948588e-01 8.822647128939626882e-01 8.798810504973409996e-01 8.783435366570948588e-01 8.770727263017860098e-01 8.705011841833592001e-01 8.665800079464911487e-01 7.450235446035862186e-01 7.450235446035862186e-01 7.450235446035862186e-01 7.489447208404540479e-01 8.665800079464911487e-01 8.665800079464911487e-01 8.665800079464911487e-01 8.665800079464911487e-01 8.665800079464911487e-01 8.741405754882252133e-01 8.783435366570948588e-01 8.783435366570948588e-01 8.783435366570948588e-01 8.751764327734712356e-01 8.744223604202270295e-01 8.744223604202270295e-01 8.744223604202270295e-01 8.774934192988591564e-01 8.744223604202270295e-01 7.646294257879256984e-01 7.607082495510578690e-01 7.607082495510579800e-01 7.530206803498301626e-01 7.528658970773219883e-01 7.528658970773220993e-01 7.536199694305661945e-01 7.575411456674341348e-01 7.567870733141897066e-01 7.536001254212703060e-01 7.591040598395775163e-01 7.646294257879256984e-01 7.685506020247936387e-01 7.685506020247936387e-01 7.703008436446906471e-01 7.685506020247936387e-01 7.685506020247936387e-01 7.646294257879255873e-01 7.607082495510578690e-01 7.607082495510578690e-01 7.646294257879258094e-01 7.685506020247936387e-01 6.548364911556243673e-01 6.548364911556243673e-01 6.548364911556243673e-01 6.548364911556243673e-01 6.509153149187565379e-01 6.509153149187565379e-01 6.509153149187565379e-01 6.548364911556243673e-01 6.615310661316856633e-01 6.548364911556243673e-01 6.548364911556243673e-01 6.594760205290038924e-01 6.587576673924923076e-01 6.573336612854194794e-01 6.548364911556243673e-01 6.548364911556243673e-01 6.587576673924923076e-01 5.097529703915119059e-01 5.097529703915119059e-01 5.960394853722714714e-01 6.548364911556243673e-01 6.548364911556243673e-01 5.178294821749463983e-01 5.097529703915119059e-01 5.099633168900489233e-01 5.058317941546439656e-01 5.058317941546439656e-01 5.058317941546439656e-01 5.058317941546439656e-01 5.058317941546439656e-01
7.646294257879256984e-01 7.724717782616614681e-01 7.763929544985295195e-01 7.763929544985295195e-01 7.763929544985295195e-01 7.803141307353972378e-01 7.807665741473431842e-01 7.763929544985295195e-01 8.822647128939626882e-01 8.822647128939626882e-01 8.767544283926804738e-01 8.705011841833592001e-01 8.705011841833592001e-01 8.705011841833592001e-01 8.744223604202270295e-01 8.744223604202270295e-01 8.744223604202270295e-01 8.760614755880670179e-01 8.789602884660103754e-01 8.783435366570948588e-01 8.744223604202270295e-01 8.744223604202270295e-01 8.744223604202270295e-01 8.705011841833592001e-01 8.665800079464911487e-01 8.665800079464911487e-01 8.665800079464911487e-01 8.665800079464911487e-01 8.665800079464911487e-01 8.661275645345452023e-01 8.665800079464911487e-01 8.665800079464911487e-01 8.665800079464911487e-01 8.744223604202270295e-01 8.783435366570948588e-01 8.783435366570948588e-01 8.818122694820167418e-01 8.783435366570948588e-01 8.783435366570948588e-01 8.783435366570948588e-01 8.783435366570948588e-01 8.783435366570948588e-01 8.783435366570948588e-01 8.744223604202270295e-01 7.646294257879256984e-01 7.646294257879256984e-01 7.607082495510579800e-01 7.602558061391119226e-01 7.567870733141898176e-01 7.567870733141898176e-01 7.607082495510578690e-01 7.607082495510577580e-01 7.567870733141898176e-01 7.567870733141898176e-01 7.622235381008918287e-01 7.646294257879255873e-01 7.646294257879256984e-01 7.609582840681858862e-01 7.646294257879256984e-01 7.646294257879256984e-01 7.607082495510578690e-01 7.567870733141898176e-01 7.607082495510578690e-01 7.607082495510578690e-01 7.646294257879256984e-01 6.548364911556243673e-01 6.548364911556243673e-01 6.509153149187565379e-01 6.509153149187565379e-01 6.509153149187565379e-01 6.509153149187565379e-01 6.548364911556243673e-01 6.587576673924923076e-01 6.587576673924923076e-01 6.583052239805463612e-01 6.587576673924923076e-01 6.626788436293602480e-01 6.603967825603326292e-01 6.548364911556243673e-01 6.548364911556243673e-01 6.548364911556243673e-01 6.587576673924923076e-01 6.555905635088719041e-01 5.097529703915119059e-01 6.548364911556243673e-01 6.548364911556243673e-01 6.548364911556243673e-01 6.548364911556243673e-01 6.548364911556243673e-01 6.548364911556243673e-01 6.544626300204900993e-01 5.058317941546439656e-01 5.058317941546439656e-01 5.058579882469145250e-01 5.058317941546439656e-01
7.506036800175901469e-01 7.647254707929176387e-01 7.758571662475401975e-01 7.763929544985295195e-01 7.777637786606894643e-01 7.803141307353972378e-01 7.763929544985295195e-01 7.724717782616614681e-01 7.763929544985295195e-01 8.211848522812048579e-01 8.783435366570948588e-01 8.742390017743333352e-01 8.705011841833592001e-01 8.705011841833592001e-01 8.744223604202270295e-01 8.744223604202270295e-01 8.744223604202270295e-01 8.744223604202270295e-01 8.783435366570948588e-01 8.783435366570948588e-01 8.756487201947134036e-01 8.744223604202270295e-01 8.744223604202270295e-01 8.744223604202270295e-01 8.744223604202270295e-01 8.744223604202270295e-01 8.744223604202270295e-01 8.744223604202270295e-01 8.705011841833592001e-01 8.705011841833592001e-01 8.744223604202270295e-01 8.744223604202270295e-01 8.744223604202270295e-01 8.783435366570948588e-01 8.783435366570948588e-01 8.806668732654578946e-01 8.822647128939626882e-01 8.854437231831646660e-01 8.887013157491778781e-01 8.962904586642983507e-01 8.910952970306345033e-01 8.822647128939626882e-01 8.783435366570948588e-01 8.744223604202270295e-01 8.559380626412955717e-01 7.623672087281940790e-01 7.623672087281940790e-01 7.607082495510578690e-01 7.567870733141898176e-01 7.567870733141898176e-01 7.646294257879256984e-01 7.633705218381945379e-01 7.567870733141898176e-01 7.584420636894672052e-01 7.614329527705434586e-01 7.607082495510578690e-01 7.607082495510578690e-01 7.584460324913260276e-01 7.607082495510578690e-01 7.607082495510578690e-01 7.607082495510578690e-01 7.567870733141898176e-01 7.567870733141898176e-01 7.580880465636281595e-01 7.069674973363080372e-01 6.509153149187565379e-01 6.509153149187565379e-01 6.509153149187565379e-01 6.509153149187565379e-01 6.509153149187565379e-01 6.548364911556243673e-01 6.587576673924923076e-01 6.688622369259600298e-01 6.652117329758877595e-01 6.626788436293602480e-01 6.632384446915042808e-01 6.626788436293602480e-01 6.572693666953004499e-01 6.548364911556243673e-01 6.587576673924921966e-01 6.548364911556243673e-01 6.548364911556243673e-01 6.587576673924924187e-01 6.587576673924923076e-01 6.587576673924923076e-01 6.564200430974367340e-01 6.548364911556243673e-01 6.548364911556243673e-01 6.548364911556243673e-01 6.551103384839076504e-01 5.097529703915119059e-01 5.076685556550716294e-01 5.058317941546439656e-01 5.058317941546439656e-01 5.097529703915119059e-01
